ncols        276
nrows        30
xllcorner    322650
yllcorner    4310300
cellsize     50.000000000000
NODATA_value nan
nan nan nan nan nan nan nan nan nan nan nan nan nan nan nan nan nan nan nan nan nan nan nan nan nan nan nan nan nan nan nan nan nan nan nan nan nan nan nan nan nan nan nan nan nan nan nan nan nan nan nan nan nan nan nan nan nan nan nan nan nan nan nan nan nan nan nan nan nan nan nan nan nan nan nan nan nan nan nan nan nan nan nan nan nan nan nan nan nan nan nan nan nan 3270.234130859375 3253.108642578125 3234.6728515625 3213.389892578125 3179.723388671875 3162.589599609375 3145.15087890625 3129.66796875 3115.52685546875 3096.2099609375 3073.458251953125 3053.215087890625 3041.74462890625 3030.525390625 3013.2578125 2995.093994140625 2984.967529296875 2979.525390625 2970.51953125 2963.23828125 2944.41162109375 2930.50634765625 2919.427734375 2910.107421875 2892.6650390625 2882.54296875 2872.16943359375 2842.908935546875 2840.276123046875 2818.728271484375 2818.01513671875 2786.446044921875 2785.56689453125 2784.73291015625 2784.15283203125 2782.757568359375 2799.720947265625 2799.3994140625 2806.403564453125 2822.598388671875 2830.333251953125 2832.464599609375 2837.44091796875 2836.195556640625 2829.97216796875 2821.8369140625 2818.935546875 2814.87109375 2816.4453125 2817.76904296875 2819.44970703125 2801.928466796875 2804.095458984375 2825.310546875 2828.68603515625 2837.99365234375 2837.8974609375 2843.0517578125 2845.689697265625 2852.9873046875 2874.72265625 2897.0986328125 2913.974365234375 2918.690673828125 2925.8642578125 2932.533203125 2938.671630859375 2951.782470703125 2958.593994140625 2977.733642578125 2973.005615234375 2969.690185546875 2972.534912109375 2980.05859375 2983.27197265625 2974.952880859375 2967.891357421875 2952.48095703125 2949.358154296875 2950.60888671875 2955.887939453125 2963.029296875 2967.27587890625 2971.337646484375 2972.557861328125 2978.292724609375 2986.149169921875 2995.140380859375 3004.14501953125 3008.973876953125 3004.19775390625 3010.959228515625 3018.461181640625 3041.227783203125 3064.12109375 3075.401123046875 3091.884765625 3114.3603515625 3137.162841796875 3153.057373046875 3154.215576171875 3151.7294921875 3140.3203125 3137.731689453125 3134.75732421875 3134.425048828125 3136.69189453125 3143.77490234375 3151.405517578125 3160.228271484375 3168.498779296875 3178.52734375 3186.3173828125 3194.167236328125 3201.622314453125 3207.08154296875 3212.88671875 3219.2119140625 3226.851318359375 3231.2978515625 3237.577392578125 3242.819580078125 3247.226318359375 3243.563720703125 3250.668701171875 3257.341064453125 3263.70361328125 3259.17626953125 3249.986328125 3230.462158203125 3247.6435546875 3253.921142578125 3265.390869140625 3297.802734375 3328.964111328125 3358.75927734375 3379.96044921875 3371.792724609375 3356.709716796875 3344.969482421875 3365.455322265625 3388.458984375 3411.66796875 3433.9130859375 3455.14306640625 3463.431640625 3446.43603515625 3426.53515625 3425.537841796875 3429.768310546875 3436.5234375 3444.7138671875 3449.997802734375 3446.989990234375 3463.583984375 3480.41015625 3485.7548828125 3476.784423828125 3478.529296875 3491.373046875 3506.5517578125 3518.705078125 3530.283935546875 3537.787353515625 nan nan nan nan nan nan nan nan nan nan nan nan nan nan nan nan nan nan nan
nan nan nan nan nan nan nan nan nan nan nan nan nan nan nan nan nan nan nan nan nan nan nan nan nan nan nan nan nan nan nan nan nan nan nan nan nan nan nan nan nan nan nan nan nan nan nan nan nan nan nan nan nan nan nan nan nan nan nan nan nan nan nan nan nan nan nan nan nan nan nan nan nan nan nan nan nan nan nan nan nan nan nan nan nan nan nan nan nan nan nan nan nan 3275.784912109375 3280.3515625 3273.688720703125 3235.21337890625 3199.67578125 3180.243896484375 3166.121826171875 3151.090576171875 3137.114990234375 3113.839111328125 3091.200927734375 3077.88134765625 3078.71044921875 3065.959228515625 3041.39208984375 3020.791015625 3007.022705078125 2995.58642578125 2987.464599609375 2977.972412109375 2960.447021484375 2949.510498046875 2935.13916015625 2926.944091796875 2914.8193359375 2900.051025390625 2887.0673828125 2880.949462890625 2874.93408203125 2861.130615234375 2848.9560546875 2814.060791015625 2787.794189453125 2787.9912109375 2785.017333984375 2784.155517578125 2788.716796875 2782.120849609375 2781.545654296875 2790.60888671875 2811.384033203125 2821.6416015625 2820.87255859375 2823.725341796875 2822.58642578125 2815.88232421875 2810.194580078125 2806.31494140625 2808.083740234375 2811.064697265625 2813.64892578125 2820.52880859375 2797.310546875 2805.26171875 2825.551025390625 2828.092041015625 2833.966552734375 2836.613037109375 2843.09130859375 2851.546142578125 2863.12890625 2884.200439453125 2912.411376953125 2917.042724609375 2927.40966796875 2936.453857421875 2943.76171875 2946.338623046875 2960.295654296875 2975.8271484375 2973.370849609375 2971.114013671875 2968.394775390625 2965.732177734375 2974.2138671875 2972.115478515625 2961.082763671875 2952.7822265625 2948.669921875 2946.9833984375 2953.771240234375 2960.60693359375 2962.400634765625 2964.739013671875 2966.314453125 2971.148193359375 2982.32470703125 2986.086669921875 2990.06298828125 2991.717041015625 3017.421630859375 3042.370849609375 3045.76513671875 3063.260009765625 3072.904052734375 3082.888671875 3109.401123046875 3134.33203125 3133.864990234375 3133.577880859375 3134.62451171875 3134.962890625 3127.969970703125 3125.367431640625 3124.963134765625 3126.278564453125 3130.7109375 3137.232666015625 3146.332275390625 3155.530517578125 3165.12353515625 3174.04541015625 3181.42333984375 3188.390869140625 3195.160888671875 3200.47900390625 3204.75927734375 3208.2431640625 3213.66845703125 3220.025146484375 3224.3134765625 3228.462646484375 3228.228759765625 3225.104736328125 3231.21435546875 3235.34326171875 3240.512451171875 3236.8232421875 3226.01025390625 3210.456787109375 3236.41552734375 3242.883056640625 3257.400146484375 3288.36181640625 3320.3330078125 3348.144287109375 3362.659423828125 3355.65234375 3336.82275390625 3331.34765625 3348.353515625 3368.1005859375 3395.593994140625 3422.477783203125 3450.318603515625 3456.30322265625 3437.1669921875 3417.360595703125 3403.974853515625 3406.223388671875 3411.227783203125 3417.61962890625 3419.48974609375 3423.489990234375 3444.768310546875 3461.899169921875 3460.43505859375 3450.5615234375 3456.368408203125 3470.31396484375 3486.65771484375 3502.2001953125 3515.365234375 3522.101318359375 3524.99072265625 nan nan nan nan nan nan nan nan nan nan nan nan nan nan nan nan nan nan
nan nan nan nan nan nan nan nan nan nan nan nan nan nan nan nan nan nan nan nan nan nan nan nan nan nan nan nan nan nan nan nan nan nan nan nan nan nan nan nan nan nan nan nan nan nan nan nan nan nan nan nan nan nan nan nan nan nan nan nan nan nan nan nan nan nan nan nan nan nan nan nan nan nan nan nan nan nan nan nan nan nan nan nan nan nan nan nan nan nan nan nan nan nan 3291.232666015625 3293.5 3251.03955078125 3219.602294921875 3208.567138671875 3198.63037109375 3164.366455078125 3143.908203125 3127.931640625 3111.962890625 3104.80517578125 3101.550537109375 3091.26025390625 3069.56298828125 3048.493408203125 3033.49755859375 3018.130859375 3005.43896484375 2993.73828125 2982.99462890625 2965.509765625 2950.494140625 2937.46337890625 2922.813232421875 2915.093994140625 2903.029052734375 2893.034423828125 2890.135986328125 2883.043212890625 2867.92236328125 2848.6455078125 2810.570068359375 2796.2421875 2787.555908203125 2783.129150390625 2781.69970703125 2782.150634765625 2780.8564453125 2780.0908203125 2779.740478515625 2804.9677734375 2812.16259765625 2809.1796875 2810.406005859375 2809.577392578125 2805.09912109375 2802.266357421875 2802.06201171875 2803.550048828125 2809.99560546875 2813.85986328125 2813.48291015625 2793.8662109375 2818.294677734375 2821.469482421875 2826.667724609375 2833.376708984375 2841.023681640625 2849.321533203125 2861.34619140625 2873.14404296875 2898.321533203125 2909.3828125 2922.766845703125 2936.316650390625 2940.169921875 2946.30615234375 2957.861083984375 2970.80078125 2969.69287109375 2969.819091796875 2965.08056640625 2955.777587890625 2965.531982421875 2966.042724609375 2952.66845703125 2949.8486328125 2946.171142578125 2943.126708984375 2952.187744140625 2956.89990234375 2958.297119140625 2957.368896484375 2958.410888671875 2962.13818359375 2970.697998046875 2973.06103515625 2980.818359375 3003.759033203125 3030.47900390625 3054.011962890625 3062.942626953125 3063.3173828125 3076.031982421875 3089.4306640625 3118.470947265625 3122.8642578125 3119.4404296875 3119.987548828125 3126.4990234375 3124.287353515625 3120.7158203125 3118.425537109375 3118.39013671875 3119.881591796875 3123.5439453125 3130.1611328125 3141.265869140625 3152.262939453125 3161.468994140625 3169.06201171875 3174.979248046875 3180.694580078125 3186.80615234375 3192.61181640625 3195.93798828125 3199.610107421875 3205.0439453125 3208.900634765625 3211.40625 3210.187744140625 3205.517822265625 3208.356689453125 3212.05029296875 3207.69384765625 3211.196533203125 3216.45166015625 3214.576171875 3206.423583984375 3223.05029296875 3229.09375 3252.037841796875 3278.17724609375 3306.29150390625 3328.055908203125 3341.268310546875 3332.33056640625 3320.991455078125 3312.310791015625 3334.594482421875 3362.782958984375 3392.520263671875 3418.5712890625 3441.8330078125 3443.30908203125 3425.01220703125 3403.385986328125 3379.83251953125 3384.392578125 3387.552734375 3390.70068359375 3391.0283203125 3406.488037109375 3427.76708984375 3440.73095703125 3433.564697265625 3424.12353515625 3434.879638671875 3451.178466796875 3469.3291015625 3485.60791015625 3499.203125 3505.73095703125 3510.082275390625 3514.275634765625 nan nan nan nan nan nan nan nan nan nan nan nan nan nan nan nan nan
nan nan nan nan nan nan nan nan nan nan nan nan nan nan nan nan nan nan nan nan nan nan nan nan nan nan nan nan nan nan nan nan nan nan nan nan nan nan nan nan nan nan nan nan nan nan nan nan nan nan nan nan nan nan nan nan nan nan nan nan nan nan nan nan nan nan nan nan nan nan nan nan nan nan nan nan nan nan nan nan nan nan nan nan nan nan nan nan nan nan nan nan nan nan 3302.987060546875 3308.26953125 3267.55859375 3239.6318359375 3225.636962890625 3207.918212890625 3180.58837890625 3161.63232421875 3150.0791015625 3142.9921875 3135.181396484375 3129.615234375 3110.958251953125 3094.483642578125 3074.037109375 3062.4560546875 3039.318603515625 3031.566650390625 3024.37841796875 3011.713623046875 2995.061767578125 2976.301513671875 2956.798095703125 2938.08544921875 2928.161376953125 2917.39892578125 2909.501708984375 2901.177978515625 2892.2890625 2871.18408203125 2856.667236328125 2838.64697265625 2827.202392578125 2809.9287109375 2788.773681640625 2781.914794921875 2781.33740234375 2780.938232421875 2780.054931640625 2780.108642578125 2778.41552734375 2803.2275390625 2802.190673828125 2800.4169921875 2798.948974609375 2796.55615234375 2791.7919921875 2797.56689453125 2797.463134765625 2804.415283203125 2806.575927734375 2803.212158203125 2791.655517578125 2808.11669921875 2820.087158203125 2825.80712890625 2832.503173828125 2840.140869140625 2850.94921875 2858.89208984375 2868.949951171875 2882.7333984375 2904.582275390625 2921.24462890625 2931.990234375 2937.655517578125 2945.961669921875 2958.019287109375 2968.3232421875 2973.032958984375 2976.229248046875 2977.646484375 2966.460693359375 2945.591064453125 2955.3173828125 2948.703369140625 2942.89208984375 2941.053955078125 2943.545654296875 2950.988037109375 2951.7451171875 2952.401611328125 2948.1015625 2949.6005859375 2954.292236328125 2961.446044921875 2969.277099609375 2988.45751953125 3012.796142578125 3028.96337890625 3049.292724609375 3062.056884765625 3062.064453125 3075.722900390625 3095.953125 3114.603271484375 3114.510986328125 3115.11181640625 3114.057373046875 3121.300048828125 3119.59814453125 3117.6611328125 3115.5830078125 3113.647216796875 3114.93701171875 3119.28662109375 3125.807861328125 3138.16162109375 3149.04931640625 3157.741943359375 3164.86474609375 3169.276611328125 3174.059814453125 3180.363525390625 3186.247802734375 3189.76318359375 3193.941162109375 3199.869873046875 3201.518310546875 3200.63525390625 3192.696044921875 3190.42333984375 3193.365478515625 3196.47802734375 3189.107421875 3190.54150390625 3194.654296875 3193.486083984375 3190.428466796875 3214.89013671875 3223.519775390625 3243.875244140625 3267.19580078125 3285.597412109375 3301.143798828125 3312.739501953125 3307.399169921875 3304.309326171875 3299.171630859375 3327.73291015625 3358.689697265625 3389.55419921875 3415.315673828125 3437.695068359375 3435.6103515625 3416.450439453125 3394.498291015625 3371.625244140625 3365.53662109375 3365.48583984375 3366.7451171875 3369.924560546875 3390.277099609375 3409.044189453125 3418.579833984375 3411.024169921875 3400.047119140625 3414.748046875 3433.969970703125 3453.05322265625 3470.331787109375 3482.375 3491.239501953125 3500.109375 3507.289794921875 nan nan nan nan nan nan nan nan nan nan nan nan nan nan nan nan nan
nan nan nan nan nan nan nan nan nan nan nan nan nan nan nan nan nan nan nan nan nan nan nan nan nan nan nan nan nan nan nan nan nan nan nan nan nan nan nan nan nan nan nan nan nan nan nan nan nan nan nan nan nan nan nan nan nan nan nan nan nan nan nan nan nan nan nan nan nan nan nan nan nan nan nan nan nan nan nan nan nan nan nan nan nan nan nan nan nan nan nan nan nan nan nan 3321.360107421875 3296.305419921875 3269.89892578125 3249.605224609375 3221.62451171875 3197.721435546875 3188.373291015625 3176.695556640625 3169.592529296875 3154.361083984375 3141.609375 3122.1171875 3103.123046875 3091.87548828125 3076.26220703125 3068.925537109375 3070.1171875 3059.699462890625 3042.657470703125 3025.603759765625 3009.6552734375 2988.404052734375 2968.86376953125 2954.818115234375 2935.201904296875 2926.53759765625 2911.863037109375 2900.664794921875 2885.559814453125 2879.191650390625 2874.108642578125 2857.93212890625 2847.6484375 2839.389892578125 2815.51171875 2805.729736328125 2791.97412109375 2780.600830078125 2779.864501953125 2778.778564453125 2781.432373046875 2792.6103515625 2792.36669921875 2790.06640625 2785.8046875 2782.976318359375 2787.07470703125 2792.118408203125 2799.46142578125 2798.77294921875 2793.095458984375 2790.185546875 2804.92236328125 2819.87890625 2827.45947265625 2830.134521484375 2835.2900390625 2849.168701171875 2857.88720703125 2865.220703125 2873.021728515625 2900.40966796875 2926.4599609375 2922.23046875 2937.864013671875 2948.6865234375 2958.3720703125 2970.429443359375 2972.99853515625 2981.6533203125 2979.575439453125 2972.607666015625 2955.88134765625 2935.960693359375 2935.357421875 2932.487060546875 2936.464111328125 2950.82275390625 2948.374755859375 2942.919921875 2947.46923828125 2941.159423828125 2944.0927734375 2950.049560546875 2956.741943359375 2977.1376953125 2992.182861328125 3007.70263671875 3030.52978515625 3047.75341796875 3058.82275390625 3073.065673828125 3084.205810546875 3092.324951171875 3101.039794921875 3107.491455078125 3112.49755859375 3111.281982421875 3115.328369140625 3117.5859375 3114.12255859375 3110.917236328125 3110.08544921875 3110.955322265625 3114.678466796875 3122.364501953125 3133.738525390625 3143.879638671875 3151.507568359375 3157.567626953125 3161.875732421875 3165.47900390625 3171.686767578125 3178.392333984375 3183.2451171875 3187.3828125 3191.14794921875 3190.90771484375 3189.72509765625 3178.150634765625 3177.994140625 3179.47998046875 3174.3095703125 3171.265869140625 3172.11962890625 3175.3544921875 3177.28076171875 3193.76513671875 3202.03125 3212.3818359375 3230.079345703125 3248.40966796875 3264.3974609375 3275.585205078125 3280.212890625 3277.974365234375 3273.994140625 3295.031982421875 3323.676025390625 3353.91357421875 3383.719482421875 3411.138427734375 3432.19677734375 3435.270263671875 3413.441162109375 3394.0048828125 3372.206298828125 3351.888916015625 3344.886474609375 3343.3525390625 3353.66650390625 3370.491943359375 3385.4375 3385.237548828125 3384.470703125 3376.65283203125 3393.6884765625 3415.271484375 3434.31201171875 3452.31689453125 3465.4658203125 3478.36767578125 3489.54833984375 3498.179931640625 3500.084228515625 nan nan nan nan nan nan nan nan nan nan nan nan nan nan nan nan
nan nan nan nan nan nan nan nan nan nan nan nan nan nan nan nan nan nan nan nan nan nan nan nan nan nan nan nan nan nan nan nan nan nan nan nan nan nan nan nan nan nan nan nan nan nan nan nan nan nan nan nan nan nan nan nan nan nan nan nan nan nan nan nan nan nan nan nan nan nan nan nan nan nan nan nan nan nan nan nan nan nan nan nan nan nan nan nan nan nan nan nan nan nan nan 3334.97802734375 3329.814208984375 3301.41650390625 3267.744140625 3239.011962890625 3218.412841796875 3211.477783203125 3219.119384765625 3209.422119140625 3185.36279296875 3156.4150390625 3136.21728515625 3121.29296875 3100.8916015625 3088.54345703125 3077.783203125 3075.266845703125 3068.925048828125 3060.93505859375 3050.05810546875 3031.7265625 3017.08203125 3002.13525390625 2970.83447265625 2970.132568359375 2954.696044921875 2937.6455078125 2924.060302734375 2909.0927734375 2895.545654296875 2886.0390625 2879.98828125 2872.588134765625 2867.509033203125 2858.343994140625 2835.230224609375 2796.863037109375 2794.990966796875 2779.7021484375 2779.35400390625 2778.30908203125 2777.732177734375 2777.614990234375 2782.13427734375 2779.43505859375 2778.80419921875 2779.001953125 2781.983154296875 2790.67578125 2794.349365234375 2785.1318359375 2786.373779296875 2812.999267578125 2818.978271484375 2824.80224609375 2830.88916015625 2834.179931640625 2842.784423828125 2854.8056640625 2860.042236328125 2865.379638671875 2885.287841796875 2921.68896484375 2918.025390625 2937.513427734375 2943.155029296875 2952.953369140625 2967.2958984375 2971.958251953125 2977.973876953125 2975.529296875 2972.9609375 2965.578125 2942.79736328125 2928.208984375 2929.218505859375 2936.48193359375 2947.011474609375 2940.58251953125 2933.52685546875 2939.59033203125 2936.146240234375 2940.78076171875 2947.579345703125 2961.037109375 2975.7890625 2988.95263671875 3003.31591796875 3022.255615234375 3042.450927734375 3052.42919921875 3059.52099609375 3076.465087890625 3093.63623046875 3106.176513671875 3099.05078125 3104.86767578125 3109.539794921875 3110.553955078125 3113.90625 3111.2978515625 3108.5673828125 3106.149658203125 3106.800048828125 3111.0078125 3118.952880859375 3128.82763671875 3137.66943359375 3144.88134765625 3150.387451171875 3153.354736328125 3156.103515625 3160.9873046875 3166.772705078125 3170.175048828125 3176.106689453125 3179.974365234375 3181.52685546875 3175.272705078125 3164.727783203125 3163.880126953125 3164.579345703125 3158.951171875 3155.385986328125 3155.486083984375 3162.93212890625 3169.4833984375 3180.072021484375 3191.756103515625 3202.8564453125 3214.857421875 3231.484130859375 3243.4619140625 3250.58935546875 3254.258056640625 3256.45166015625 3265.87109375 3290.26904296875 3315.599853515625 3339.993408203125 3369.95458984375 3393.978759765625 3412.778564453125 3429.609619140625 3424.819580078125 3398.656982421875 3375.423828125 3352.84814453125 3331.039306640625 3323.30029296875 3334.69287109375 3349.16552734375 3360.759033203125 3357.194580078125 3356.67333984375 3355.86181640625 3374.34619140625 3395.918701171875 3418.488037109375 3436.91845703125 3453.2880859375 3467.476806640625 3477.1357421875 3484.282470703125 3487.18408203125 3486.8017578125 nan nan nan nan nan nan nan nan nan nan nan nan nan nan nan
nan nan nan nan nan nan nan nan nan nan nan nan nan nan nan nan nan nan nan nan nan nan nan nan nan nan nan nan nan nan nan nan nan nan nan nan nan nan nan nan nan nan nan nan nan nan nan nan nan nan nan nan nan nan nan nan nan nan nan nan nan nan nan nan nan nan nan nan nan nan nan nan nan nan nan nan nan nan nan nan nan nan nan nan nan nan nan nan nan nan nan nan nan nan nan 3348.697998046875 3352.956787109375 3315.32861328125 3284.962158203125 3259.23876953125 3244.75439453125 3238.906494140625 3248.7353515625 3245.031494140625 3220.25 3185.554931640625 3156.371337890625 3144.74365234375 3133.9775390625 3116.769775390625 3101.205078125 3094.672119140625 3091.857421875 3077.706298828125 3061.673583984375 3049.994873046875 3038.772216796875 3019.438232421875 3009.50341796875 2997.1484375 2987.6513671875 2969.22216796875 2951.7490234375 2929.293701171875 2911.5859375 2905.20751953125 2891.61279296875 2883.730224609375 2877.177001953125 2867.842041015625 2835.3544921875 2837.8935546875 2826.3408203125 2793.83642578125 2778.872802734375 2778.2021484375 2777.4052734375 2776.568603515625 2776.968994140625 2776.054931640625 2776.12060546875 2776.151611328125 2775.6005859375 2778.9599609375 2786.81494140625 2781.348388671875 2783.025634765625 2804.14892578125 2815.26611328125 2824.41064453125 2831.107177734375 2836.0888671875 2840.630126953125 2849.37060546875 2856.602294921875 2862.482666015625 2878.436279296875 2907.193359375 2922.441162109375 2931.310302734375 2938.15625 2948.03857421875 2956.46875 2969.9013671875 2981.190185546875 2975.286376953125 2965.0625 2959.648681640625 2936.818603515625 2924.1796875 2926.04638671875 2929.028076171875 2934.909912109375 2928.475341796875 2926.384521484375 2926.844482421875 2932.3515625 2936.903564453125 2947.917236328125 2960.080810546875 2979.475830078125 2994.1435546875 3007.958740234375 3022.28759765625 3044.62939453125 3046.679443359375 3052.27490234375 3063.10107421875 3082.55322265625 3098.28955078125 3101.249755859375 3102.4970703125 3106.731201171875 3108.43994140625 3110.709228515625 3107.42333984375 3105.659912109375 3102.044921875 3102.6171875 3107.155029296875 3113.935546875 3122.903076171875 3131.381591796875 3137.817626953125 3141.900634765625 3146.099853515625 3149.394775390625 3150.441650390625 3156.06103515625 3161.384521484375 3166.725830078125 3170.614501953125 3172.99951171875 3158.78369140625 3151.6142578125 3148.43017578125 3145.822509765625 3146.371826171875 3142.4267578125 3149.08203125 3155.199462890625 3163.550537109375 3175.23095703125 3187.73681640625 3193.1123046875 3202.95751953125 3214.255859375 3223.56689453125 3229.63818359375 3236.622314453125 3243.5107421875 3261.27978515625 3281.83349609375 3305.652099609375 3329.6708984375 3352.787109375 3370.760986328125 3389.267333984375 3409.042724609375 3423.504638671875 3401.96435546875 3371.9814453125 3345.627197265625 3325.0693359375 3309.49072265625 3313.64892578125 3327.44384765625 3337.104736328125 3333.736083984375 3331.6435546875 3340.9140625 3363.297607421875 3389.291015625 3413.2568359375 3431.7294921875 3442.1083984375 3451.762451171875 3460.634521484375 3465.7470703125 3470.18798828125 3475.205322265625 3481.313232421875 nan nan nan nan nan nan nan nan nan nan nan nan nan nan
nan nan nan nan nan nan nan nan nan nan nan nan nan nan nan nan nan nan nan nan nan nan nan nan nan nan nan nan nan nan nan nan nan nan nan nan nan nan nan nan nan nan nan nan nan nan nan nan nan nan nan nan nan nan nan nan nan nan nan nan nan nan nan nan nan nan nan nan nan nan nan nan nan nan nan nan nan nan nan nan nan nan nan nan nan nan nan nan nan nan nan nan nan nan nan 3361.671875 3367.50244140625 3332.77490234375 3301.359375 3281.670166015625 3279.67724609375 3285.21533203125 3288.8173828125 3274.316650390625 3239.7099609375 3204.7275390625 3194.55517578125 3182.379150390625 3154.563720703125 3140.30908203125 3129.154296875 3121.9560546875 3116.895263671875 3106.009521484375 3089.7607421875 3070.6904296875 3053.448486328125 3040.193359375 3031.360595703125 3023.1748046875 3009.23291015625 2999.44287109375 2984.673828125 2962.0361328125 2933.59375 2916.05859375 2905.451904296875 2896.94873046875 2890.72802734375 2877.600830078125 2870.789306640625 2863.987060546875 2853.1435546875 2828.061279296875 2804.9921875 2789.144287109375 2776.75634765625 2776.684814453125 2776.494384765625 2775.12939453125 2775.846923828125 2775.579345703125 2775.308837890625 2776.2412109375 2778.077392578125 2781.691162109375 2783.20068359375 2796.733154296875 2808.88037109375 2817.851806640625 2830.730712890625 2837.3359375 2840.834716796875 2845.28125 2852.229736328125 2861.462890625 2870.8095703125 2894.442138671875 2913.247314453125 2921.97314453125 2931.318359375 2942.448974609375 2947.871826171875 2963.15087890625 2966.8505859375 2972.826171875 2951.003173828125 2938.946533203125 2930.07373046875 2921.402587890625 2920.770263671875 2924.46044921875 2924.15869140625 2923.43408203125 2921.6015625 2923.60546875 2934.34814453125 2936.643310546875 2949.48486328125 2964.709716796875 2981.3232421875 2994.326171875 3007.25439453125 3019.148193359375 3033.00830078125 3040.2666015625 3048.544921875 3057.38232421875 3070.372314453125 3087.006103515625 3094.171142578125 3100.672607421875 3106.73388671875 3108.1357421875 3106.9150390625 3105.022705078125 3098.551025390625 3098.072265625 3097.766357421875 3100.670654296875 3107.447265625 3115.57373046875 3121.34521484375 3126.45703125 3132.594970703125 3137.151611328125 3139.859130859375 3142.9287109375 3147.193359375 3150.13916015625 3153.843017578125 3160.762939453125 3161.900146484375 3143.173583984375 3135.183837890625 3132.238037109375 3128.939697265625 3130.702392578125 3135.938232421875 3142.9482421875 3157.208740234375 3164.738037109375 3171.936767578125 3175.976806640625 3182.897705078125 3189.3056640625 3199.07568359375 3208.15869140625 3216.766357421875 3226.038818359375 3241.975341796875 3253.69677734375 3274.386962890625 3295.203125 3316.0380859375 3335.07958984375 3350.09814453125 3369.4326171875 3388.958984375 3407.678466796875 3405.999267578125 3378.361328125 3353.98291015625 3328.624755859375 3301.584716796875 3292.838134765625 3301.1396484375 3311.852783203125 3308.626220703125 3310.931640625 3338.38623046875 3362.48486328125 3390.5068359375 3410.529052734375 3418.240478515625 3423.402587890625 3430.209716796875 3437.34228515625 3442.565185546875 3454.90185546875 3467.332763671875 3477.633544921875 nan nan nan nan nan nan nan nan nan nan nan nan nan nan
nan nan nan nan nan nan nan nan nan nan nan nan nan nan nan nan nan nan nan nan nan nan nan nan nan nan nan nan nan nan nan nan nan nan nan nan nan nan nan nan nan nan nan nan nan nan nan nan nan nan nan nan nan nan nan nan nan nan nan nan nan nan nan nan nan nan nan nan nan nan nan nan nan nan nan nan nan nan nan nan nan nan nan nan nan nan nan nan nan nan nan nan nan nan nan 3373.339599609375 3378.968994140625 3357.0615234375 3332.742919921875 3316.520751953125 3318.166748046875 3322.78564453125 3313.01904296875 3275.137939453125 3247.357177734375 3233.8486328125 3228.90478515625 3211.932373046875 3181.595703125 3174.369140625 3152.19140625 3141.316650390625 3133.19384765625 3121.99609375 3115.512939453125 3097.853271484375 3080.8388671875 3066.443359375 3049.5439453125 3040.268310546875 3031.67626953125 3014.297607421875 2996.760498046875 2973.59326171875 2957.05712890625 2944.416748046875 2924.689697265625 2908.923095703125 2903.040771484375 2891.578125 2883.837158203125 2875.963134765625 2866.908935546875 2844.89599609375 2828.260498046875 2807.822998046875 2783.34521484375 2776.086181640625 2775.6884765625 2775.0830078125 2774.4912109375 2774.08984375 2775.544677734375 2776.680908203125 2777.575439453125 2779.056884765625 2779.19287109375 2787.9130859375 2799.70703125 2813.076904296875 2826.670166015625 2833.6396484375 2838.1064453125 2843.652099609375 2849.385986328125 2854.360595703125 2864.6904296875 2882.389892578125 2899.51123046875 2908.80615234375 2923.957763671875 2931.327392578125 2940.489501953125 2958.022705078125 2962.360107421875 2968.162353515625 2943.084716796875 2927.916015625 2924.23974609375 2921.201416015625 2916.76904296875 2919.625732421875 2924.506103515625 2920.824462890625 2916.58056640625 2920.9736328125 2929.27685546875 2935.67822265625 2949.234130859375 2964.351318359375 2979.8212890625 2993.103271484375 3002.01025390625 3014.0498046875 3021.41845703125 3028.35107421875 3037.480712890625 3046.250244140625 3056.94287109375 3069.929443359375 3082.131591796875 3092.67431640625 3099.397705078125 3104.28271484375 3103.932861328125 3100.943115234375 3096.297607421875 3096.46337890625 3095.281005859375 3092.791748046875 3094.2197265625 3100.455810546875 3109.01220703125 3116.470458984375 3122.930908203125 3128.0771484375 3130.93505859375 3133.625732421875 3137.586181640625 3143.330322265625 3146.7109375 3150.3154296875 3152.58984375 3131.72900390625 3119.69189453125 3118.037841796875 3117.65576171875 3124.122802734375 3134.634521484375 3145.59716796875 3153.239990234375 3157.35791015625 3163.6689453125 3169.8837890625 3177.110595703125 3183.568603515625 3191.80859375 3200.60693359375 3208.796875 3220.822265625 3232.091796875 3247.640869140625 3268.198974609375 3282.91552734375 3300.50634765625 3312.811767578125 3326.584228515625 3353.127197265625 3378.024169921875 3402.178466796875 3401.901611328125 3376.001220703125 3350.774658203125 3324.824951171875 3298.283935546875 3274.3193359375 3272.893310546875 3283.6923828125 3286.823486328125 3311.889892578125 3338.64794921875 3363.720947265625 3386.118896484375 3394.288330078125 3396.269287109375 3399.1123046875 3407.410400390625 3414.6337890625 3429.677001953125 3445.542236328125 3460.2529296875 3472.115478515625 nan nan nan nan nan nan nan nan nan nan nan nan nan nan
nan nan nan nan nan nan nan nan nan nan nan nan nan nan nan nan nan nan nan nan nan nan nan nan nan nan nan nan nan nan nan nan nan nan nan nan nan nan nan nan nan nan nan nan nan nan nan nan nan nan nan nan nan nan nan nan nan nan nan nan nan nan nan nan nan nan nan nan nan nan nan nan nan nan nan nan nan nan nan nan nan nan nan nan nan nan nan nan nan nan nan nan nan nan nan nan 3386.358642578125 3386.552001953125 3363.85498046875 3353.114013671875 3352.8037109375 3349.259521484375 3319.1767578125 3284.62060546875 3267.10791015625 3263.0654296875 3247.460693359375 3221.21240234375 3214.180908203125 3218.204833984375 3185.912353515625 3165.056396484375 3144.181396484375 3132.9375 3126.017333984375 3115.737060546875 3098.303466796875 3087.60302734375 3069.695556640625 3056.742431640625 3047.250244140625 3035.26513671875 3009.421142578125 2986.74853515625 2968.52294921875 2960.748046875 2950.590576171875 2930.74462890625 2922.43798828125 2910.63525390625 2900.001220703125 2886.360107421875 2880.124267578125 2864.92431640625 2846.720458984375 2822.955810546875 2804.876953125 2780.90673828125 2775.572265625 2774.573486328125 2774.328857421875 2774.188720703125 2774.87451171875 2776.000244140625 2776.80615234375 2776.916748046875 2777.1171875 2779.806640625 2789.4404296875 2806.0625 2820.255126953125 2830.538818359375 2836.1328125 2842.060302734375 2847.063720703125 2851.09619140625 2859.7880859375 2874.59814453125 2887.793701171875 2893.652099609375 2908.16064453125 2919.267578125 2930.031494140625 2940.0087890625 2951.318603515625 2949.8330078125 2944.591064453125 2931.678955078125 2925.68359375 2924.424072265625 2914.41259765625 2911.642333984375 2919.3271484375 2921.429931640625 2914.013916015625 2921.966796875 2926.34033203125 2932.222412109375 2945.37548828125 2960.109375 2975.761962890625 2989.788818359375 2998.12744140625 3003.768798828125 3014.147705078125 3022.21923828125 3022.795166015625 3031.116943359375 3045.28076171875 3056.9296875 3064.3369140625 3075.76220703125 3091.88671875 3100.796875 3103.682373046875 3104.44091796875 3101.2197265625 3101.70166015625 3099.453369140625 3097.2607421875 3088.076904296875 3093.14453125 3100.117431640625 3107.931640625 3115.36328125 3120.87890625 3124.645263671875 3126.158203125 3129.982177734375 3135.40576171875 3138.65625 3142.45263671875 3141.72119140625 3116.603271484375 3106.025634765625 3108.98974609375 3112.92724609375 3122.402587890625 3133.95361328125 3140.471435546875 3145.338134765625 3152.322509765625 3157.99462890625 3165.255859375 3171.7158203125 3178.906005859375 3181.68359375 3194.227783203125 3202.7568359375 3210.766357421875 3224.72607421875 3238.929443359375 3258.3427734375 3278.16552734375 3292.471923828125 3302.5810546875 3321.80712890625 3343.6123046875 3365.61669921875 3390.1337890625 3395.852783203125 3371.4931640625 3344.427734375 3319.06884765625 3293.307373046875 3269.052978515625 3254.46630859375 3266.693603515625 3291.42529296875 3316.078369140625 3339.356201171875 3362.134033203125 3367.582763671875 3370.487548828125 3372.900146484375 3376.357666015625 3385.351318359375 3400.2744140625 3420.171142578125 3439.479736328125 3455.862060546875 3466.321044921875 nan nan nan nan nan nan nan nan nan nan nan nan nan nan
nan nan nan nan nan nan nan nan nan nan nan nan nan nan nan nan nan nan nan nan nan nan nan nan nan nan nan nan nan nan nan nan nan nan nan nan nan nan nan nan nan nan nan nan nan nan nan nan nan nan nan nan nan nan nan nan nan nan nan nan nan nan nan nan nan nan nan nan nan nan nan nan nan nan nan nan nan nan nan nan nan nan nan nan nan nan nan nan nan nan nan nan nan nan nan nan nan 3394.145263671875 3394.283203125 3388.910888671875 3381.564697265625 3366.451904296875 3329.358154296875 3307.10791015625 3294.599609375 3276.7421875 3254.980712890625 3245.6005859375 3245.356201171875 3247.5244140625 3221.81787109375 3194.2548828125 3167.223388671875 3146.877197265625 3135.74755859375 3131.972900390625 3120.718994140625 3106.164794921875 3085.860107421875 3074.005859375 3053.553466796875 3038.61474609375 3025.358154296875 3005.73095703125 2990.54638671875 2974.406005859375 2959.443359375 2944.552978515625 2943.12451171875 2933.958740234375 2922.949462890625 2906.358154296875 2897.156005859375 2882.08349609375 2865.397705078125 2842.504638671875 2815.130126953125 2795.633544921875 2781.481689453125 2775.10302734375 2772.84912109375 2773.9638671875 2774.119140625 2774.98193359375 2775.498779296875 2775.5458984375 2775.496337890625 2775.007568359375 2779.165771484375 2794.876953125 2813.31201171875 2826.50244140625 2834.385009765625 2839.914306640625 2844.82177734375 2847.870849609375 2854.440673828125 2867.579345703125 2879.316650390625 2884.48876953125 2893.637939453125 2908.42041015625 2915.715576171875 2921.326904296875 2933.6923828125 2941.67431640625 2941.858642578125 2939.6572265625 2930.755126953125 2918.0068359375 2912.9033203125 2909.07177734375 2907.310302734375 2913.728271484375 2911.38818359375 2915.720703125 2920.877685546875 2927.822265625 2940.0869140625 2954.634765625 2971.598388671875 2984.151123046875 2989.88134765625 2995.188720703125 3003.408203125 3010.28662109375 3017.57080078125 3019.140625 3029.089599609375 3041.614013671875 3053.149169921875 3061.833251953125 3077.416259765625 3088.44384765625 3103.261474609375 3106.83251953125 3104.90234375 3106.346923828125 3106.974853515625 3104.978759765625 3088.3408203125 3085.151611328125 3092.454833984375 3100.281494140625 3107.470947265625 3115.012939453125 3118.73388671875 3122.1181640625 3125.120361328125 3127.46533203125 3130.995849609375 3133.48583984375 3127.596923828125 3104.141357421875 3098.8818359375 3101.570068359375 3110.726806640625 3123.015380859375 3128.7822265625 3133.46630859375 3140.741943359375 3146.861083984375 3151.503662109375 3157.187744140625 3163.007080078125 3168.411376953125 3180.939208984375 3189.5400390625 3197.222412109375 3206.513916015625 3219.292236328125 3234.645263671875 3250.27783203125 3265.05810546875 3279.967041015625 3294.047119140625 3307.09228515625 3325.71044921875 3344.06982421875 3362.959716796875 3378.20068359375 3357.39697265625 3333.01708984375 3308.197509765625 3280.66650390625 3256.974609375 3239.8857421875 3271.201904296875 3297.267333984375 3318.262939453125 3336.83251953125 3340.875732421875 3340.962158203125 3344.620361328125 3345.623291015625 3351.8818359375 3370.1826171875 3390.370361328125 3414.01318359375 3433.7822265625 3449.385009765625 3462.7578125 nan nan nan nan nan nan nan nan nan nan nan nan nan nan
nan nan nan nan nan nan nan nan nan nan nan nan nan nan nan nan nan nan nan nan nan nan nan nan nan nan nan nan nan nan nan nan nan nan nan nan nan nan nan nan nan nan nan nan nan nan nan nan nan nan nan nan nan nan nan nan nan nan nan nan nan nan nan nan nan nan nan nan nan nan nan nan nan nan nan nan nan nan nan nan nan nan nan nan nan nan nan nan nan nan nan nan nan nan nan nan nan nan nan nan nan 3374.0205078125 3352.843994140625 3333.52099609375 3318.02685546875 3288.82763671875 3273.320556640625 3274.560791015625 3277.79931640625 3274.853759765625 3257.067138671875 3220.2490234375 3187.186767578125 3161.311279296875 3144.097900390625 3132.5205078125 3124.2578125 3118.13720703125 3110.81689453125 3094.227294921875 3075.194580078125 3054.36328125 3029.62255859375 3020.70068359375 3011.29296875 2991.8427734375 2982.29638671875 2965.77685546875 2956.18408203125 2942.237548828125 2929.848876953125 2922.26806640625 2917.024658203125 2904.818115234375 2878.358154296875 2864.172119140625 2833.495849609375 2811.5283203125 2797.49658203125 2784.4580078125 2773.02490234375 2773.708740234375 2773.3369140625 2774.08447265625 2774.25146484375 2774.505859375 2774.5625 2774.3408203125 2773.6416015625 2783.78271484375 2805.3408203125 2820.77783203125 2832.265869140625 2838.193359375 2844.338623046875 2844.923828125 2849.346435546875 2860.515625 2871.86572265625 2879.115478515625 2882.9677734375 2899.144287109375 2907.09033203125 2915.241943359375 2924.009033203125 2940.408203125 2939.396728515625 2939.20556640625 2936.03076171875 2923.990478515625 2917.765380859375 2913.75244140625 2905.087890625 2904.658203125 2904.258056640625 2914.845947265625 2913.633544921875 2921.3916015625 2932.47216796875 2946.68408203125 2958.16943359375 2976.63427734375 2983.166015625 2988.978759765625 2995.19677734375 3002.122314453125 3006.883056640625 3012.376220703125 3018.2138671875 3028.427978515625 3040.064453125 3048.605712890625 3061.77783203125 3076.223388671875 3090.134033203125 3105.111328125 3108.5263671875 3108.772216796875 3113.486083984375 3120.729248046875 3098.507568359375 3082.58984375 3084.593505859375 3092.71826171875 3099.76953125 3108.12548828125 3112.787353515625 3116.352294921875 3117.599609375 3120.642578125 3123.799560546875 3124.117431640625 3116.051025390625 3092.435546875 3092.724365234375 3095.766357421875 3111.06298828125 3118.014404296875 3122.454833984375 3128.5439453125 3135.6435546875 3140.505126953125 3143.27099609375 3147.612060546875 3159.28369140625 3170.7587890625 3177.348876953125 3183.39892578125 3191.816162109375 3201.639892578125 3214.77783203125 3226.91357421875 3239.51513671875 3250.861328125 3261.484619140625 3270.13525390625 3281.160400390625 3301.85009765625 3322.823974609375 3338.63671875 3352.294921875 3343.80712890625 3321.000732421875 3293.771728515625 3268.692138671875 3246.5673828125 3229.50537109375 3266.0078125 3291.468505859375 3312.826416015625 3316.737060546875 3312.384033203125 3316.560546875 3315.94384765625 3317.91845703125 3340.246337890625 3363.575927734375 3386.755615234375 3409.3935546875 3428.828125 3445.9267578125 3462.30419921875 nan nan nan nan nan nan nan nan nan nan nan nan nan nan
nan nan nan nan nan nan nan nan nan nan nan nan nan nan nan nan nan nan nan nan nan nan nan nan nan nan nan nan nan nan nan nan nan nan nan nan nan nan nan nan nan nan nan nan nan nan nan nan nan nan nan nan nan nan nan nan nan nan nan nan nan nan nan nan nan nan nan nan nan nan nan nan nan nan nan nan nan nan nan nan nan nan nan nan nan nan nan nan nan nan nan nan nan nan nan nan nan nan nan nan nan nan 3363.71533203125 3359.1064453125 3339.099609375 3310.6826171875 3303.148193359375 3305.959228515625 3306.378173828125 3297.17919921875 3278.614990234375 3239.0830078125 3204.648193359375 3177.4892578125 3149.945556640625 3129.70703125 3121.846435546875 3114.874267578125 3108.1416015625 3101.476806640625 3094.431640625 3072.694091796875 3046.66357421875 3024.595947265625 3014.05517578125 3012.127197265625 2995.8828125 2985.78125 2972.14697265625 2952.458984375 2929.287109375 2916.73388671875 2905.4912109375 2898.242919921875 2885.53955078125 2870.1591796875 2858.013916015625 2839.91357421875 2820.884765625 2800.256103515625 2788.783203125 2772.29345703125 2771.84814453125 2772.636962890625 2772.125732421875 2772.4931640625 2771.983642578125 2773.375 2772.97998046875 2775.22607421875 2796.041748046875 2817.044189453125 2828.365478515625 2837.283935546875 2843.547119140625 2844.059814453125 2843.466796875 2854.720458984375 2865.548828125 2873.882080078125 2878.63427734375 2890.60302734375 2904.566162109375 2908.000244140625 2918.322509765625 2932.600341796875 2935.859130859375 2939.3154296875 2931.45751953125 2926.84814453125 2919.108642578125 2915.507568359375 2902.085205078125 2901.558837890625 2900.8134765625 2908.16455078125 2911.98291015625 2917.55029296875 2924.892333984375 2936.276123046875 2947.77294921875 2962.709716796875 2965.724365234375 2977.80419921875 2984.78173828125 2994.384033203125 2997.6826171875 3001.90771484375 3010.189697265625 3021.379638671875 3031.882080078125 3042.302001953125 3053.717041015625 3066.93017578125 3083.3125 3094.167724609375 3103.673828125 3110.263427734375 3116.179931640625 3130.02197265625 3125.14501953125 3093.5419921875 3077.37158203125 3081.7490234375 3089.828369140625 3097.26318359375 3104.109375 3108.258056640625 3111.05810546875 3113.06494140625 3113.57080078125 3115.184326171875 3106.7041015625 3084.706787109375 3087.661865234375 3094.704345703125 3106.9189453125 3112.98974609375 3118.935302734375 3125.46630859375 3130.3759765625 3130.38671875 3138.07861328125 3148.526123046875 3160.792724609375 3169.78759765625 3178.41357421875 3184.6650390625 3190.75244140625 3200.53515625 3210.0234375 3221.370361328125 3230.94921875 3231.677490234375 3240.111083984375 3249.600341796875 3264.495361328125 3283.62548828125 3301.714111328125 3317.020751953125 3328.972412109375 3330.0185546875 3308.295166015625 3282.04296875 3257.9609375 3237.259033203125 3221.073486328125 3257.384521484375 3278.4462890625 3291.524169921875 3287.033203125 3289.111572265625 3289.951904296875 3290.754638671875 3312.171142578125 3337.135498046875 3362.521484375 3385.24853515625 3407.457763671875 3426.740478515625 3443.952392578125 3458.144775390625 nan nan nan nan nan nan nan nan nan nan nan nan nan nan
nan nan nan nan nan nan nan nan nan nan nan nan nan nan nan nan nan nan nan nan nan nan nan nan nan nan nan nan nan nan nan nan nan nan nan nan nan nan nan nan nan nan nan nan nan nan nan nan nan nan nan nan nan nan nan nan nan nan nan nan nan nan nan nan nan nan nan nan nan nan nan nan nan nan nan nan nan nan nan nan nan nan nan nan nan nan nan nan nan nan nan nan nan nan nan nan nan nan nan nan nan nan nan nan 3359.713134765625 3342.6103515625 3335.25537109375 3333.014892578125 3329.859375 3319.73974609375 3298.132080078125 3259.775390625 3229.528076171875 3198.245361328125 3174.81640625 3143.77392578125 3122.38134765625 3112.297119140625 3105.498779296875 3097.93701171875 3100.15283203125 3088.79736328125 3067.8740234375 3044.156494140625 3024.62158203125 3012.866455078125 3005.17822265625 3001.80712890625 2983.37109375 2961.936279296875 2940.500732421875 2922.38525390625 2906.774169921875 2899.162109375 2889.5908203125 2879.783935546875 2870.543701171875 2860.709228515625 2844.1611328125 2823.50634765625 2803.736328125 2789.69287109375 2771.542724609375 2771.349853515625 2771.703369140625 2771.861572265625 2770.74658203125 2770.947509765625 2771.39404296875 2771.4501953125 2787.10009765625 2807.77734375 2823.73779296875 2833.30810546875 2840.324462890625 2842.485107421875 2839.218505859375 2845.08984375 2858.46630859375 2869.105712890625 2873.08544921875 2881.770751953125 2895.481689453125 2902.88232421875 2910.620849609375 2921.90478515625 2932.077392578125 2940.91455078125 2933.804443359375 2922.344482421875 2923.356689453125 2914.599365234375 2906.629150390625 2897.968017578125 2897.813720703125 2902.37451171875 2909.849365234375 2913.527587890625 2917.914306640625 2924.45068359375 2938.4677734375 2949.666015625 2953.051025390625 2959.167724609375 2972.85986328125 2978.992431640625 2985.96923828125 2994.436279296875 3000.4326171875 3012.84619140625 3021.904052734375 3029.788330078125 3042.41748046875 3057.120849609375 3068.838134765625 3087.5927734375 3103.194091796875 3108.9921875 3114.41357421875 3127.532470703125 3137.15234375 3128.78125 3098.563232421875 3076.27001953125 3076.637939453125 3086.04638671875 3091.466064453125 3097.21240234375 3098.9912109375 3101.539306640625 3104.97802734375 3105.397705078125 3099.68359375 3079.4501953125 3080.956298828125 3089.51025390625 3099.371337890625 3108.041015625 3115.402099609375 3119.937255859375 3117.8291015625 3125.5205078125 3135.638671875 3145.505615234375 3154.36669921875 3163.29931640625 3175.037841796875 3183.669189453125 3192.143310546875 3198.696044921875 3205.3125 3194.81884765625 3185.386962890625 3194.457275390625 3225.76220703125 3236.171142578125 3248.95703125 3265.116943359375 3281.943115234375 3295.5771484375 3306.48681640625 3313.39697265625 3298.162841796875 3273.351318359375 3246.832275390625 3227.165771484375 3208.17431640625 3240.962158203125 3255.829345703125 3256.921142578125 3256.095947265625 3260.953857421875 3258.88427734375 3288.481201171875 3313.531494140625 3338.687744140625 3362.6923828125 3384.287353515625 3404.5244140625 3422.283203125 3437.209716796875 3448.811279296875 nan nan nan nan nan nan nan nan nan nan nan nan nan nan
nan nan nan nan nan nan nan nan nan nan nan nan nan nan nan nan nan nan nan nan nan nan nan nan nan nan nan nan nan nan nan nan nan nan nan nan nan nan nan nan nan nan nan nan nan nan nan nan nan nan nan nan nan nan nan nan nan nan nan nan nan nan nan nan nan nan nan nan nan nan nan nan nan nan nan nan nan nan nan nan nan nan nan nan nan nan nan nan nan nan nan nan nan nan nan nan nan nan nan nan nan nan nan nan nan 3362.64892578125 3359.2392578125 3353.617919921875 3344.39404296875 3332.57080078125 3316.157958984375 3293.415283203125 3255.4609375 3219.77001953125 3192.619873046875 3156.82080078125 3127.528076171875 3113.71337890625 3106.7978515625 3096.28173828125 3084.33544921875 3086.1220703125 3078.6357421875 3062.984619140625 3042.231201171875 3024.8681640625 3008.68603515625 2997.858642578125 2992.481201171875 2971.000244140625 2952.40234375 2934.85546875 2916.290771484375 2905.8076171875 2893.781982421875 2887.619873046875 2877.4462890625 2870.541748046875 2860.94140625 2845.09912109375 2824.7275390625 2804.080810546875 2787.22119140625 2771.156494140625 2771.713623046875 2771.4208984375 2771.18896484375 2770.332763671875 2770.489990234375 2769.45166015625 2772.394287109375 2792.74169921875 2811.1611328125 2824.59423828125 2832.704345703125 2838.14306640625 2837.378173828125 2839.36083984375 2849.370849609375 2861.884765625 2868.892822265625 2874.5439453125 2886.408203125 2898.532470703125 2903.39306640625 2912.45263671875 2923.69287109375 2934.2939453125 2933.6123046875 2925.825439453125 2920.623046875 2909.975341796875 2909.33740234375 2893.94921875 2894.813720703125 2898.5849609375 2903.03271484375 2909.8115234375 2912.288818359375 2916.207275390625 2925.1943359375 2932.80322265625 2940.25244140625 2953.8857421875 2965.502685546875 2968.21044921875 2971.824462890625 2982.809814453125 2991.33984375 3000.359619140625 3012.435791015625 3019.030517578125 3031.140625 3045.910400390625 3059.75537109375 3077.611572265625 3098.219970703125 3110.256103515625 3114.5185546875 3121.6640625 3129.39306640625 3125.310791015625 3120.575927734375 3110.665771484375 3076.9775390625 3073.740966796875 3076.424560546875 3084.84423828125 3088.840087890625 3091.56103515625 3093.79541015625 3096.4208984375 3096.614990234375 3073.8564453125 3074.924560546875 3080.221435546875 3095.214111328125 3105.18994140625 3109.453125 3106.782470703125 3113.2626953125 3125.8525390625 3138.510498046875 3148.452392578125 3157.781494140625 3170.114501953125 3181.021728515625 3189.941162109375 3197.672119140625 3205.823486328125 3173.313720703125 3151.364501953125 3142.533203125 3171.991455078125 3210.812744140625 3218.33935546875 3229.44677734375 3246.348388671875 3264.287109375 3277.69970703125 3284.289794921875 3284.927001953125 3283.2724609375 3261.814453125 3237.145263671875 3215.07275390625 3194.599365234375 3220.6357421875 3236.618408203125 3227.86572265625 3226.4619140625 3238.94970703125 3267.288330078125 3294.333984375 3317.05810546875 3341.6767578125 3362.9296875 3380.83837890625 3398.182373046875 3412.489013671875 3424.480224609375 3433.53173828125 3438.339111328125 nan nan nan nan nan nan nan nan nan nan nan nan nan
nan nan nan nan nan nan nan nan nan nan nan nan nan nan nan nan nan nan nan nan nan nan nan nan nan nan nan nan nan nan nan nan nan nan nan nan nan nan nan nan nan nan nan nan nan nan nan nan nan nan nan nan nan nan nan nan nan nan nan nan nan nan nan nan nan nan nan nan nan nan nan nan nan nan nan nan nan nan nan nan nan nan nan nan nan nan nan nan nan nan nan nan nan nan nan nan nan nan nan nan nan nan nan nan nan nan nan 3357.42333984375 3344.160888671875 3325.665283203125 3304.746826171875 3288.5 3272.518798828125 3244.115478515625 3212.687255859375 3172.095458984375 3140.7578125 3119.43505859375 3102.354736328125 3094.641845703125 3089.435302734375 3076.258544921875 3073.614501953125 3065.425048828125 3051.521728515625 3035.143310546875 3017.731689453125 3009.14892578125 2994.69189453125 2980.98388671875 2967.916259765625 2947.93603515625 2930.583251953125 2916.966552734375 2906.188720703125 2894.06103515625 2891.22705078125 2881.707275390625 2870.13671875 2859.936767578125 2842.85693359375 2820.994873046875 2802.388427734375 2783.0361328125 2770.43408203125 2770.10693359375 2770.28125 2770.235595703125 2769.9521484375 2769.4638671875 2768.947509765625 2778.9306640625 2798.5595703125 2816.44189453125 2821.805908203125 2829.507080078125 2834.302734375 2834.506591796875 2844.266845703125 2854.61865234375 2863.675048828125 2869.667724609375 2877.35546875 2893.4755859375 2901.947021484375 2905.01416015625 2915.59423828125 2922.79443359375 2931.064453125 2927.409912109375 2927.5849609375 2905.149658203125 2904.40234375 2894.606201171875 2891.26904296875 2897.1123046875 2897.20068359375 2905.343505859375 2907.839599609375 2909.96240234375 2914.528564453125 2923.739013671875 2935.33056640625 2947.575927734375 2958.312255859375 2963.329833984375 2963.697021484375 2970.54052734375 2979.027587890625 2992.262939453125 3000.27978515625 3012.93310546875 3019.90625 3035.051513671875 3051.25390625 3069.685546875 3089.560791015625 3104.97021484375 3115.197265625 3121.963134765625 3125.867919921875 3117.50732421875 3110.955810546875 3111.784912109375 3103.36328125 3078.909912109375 3065.3896484375 3069.794921875 3076.859375 3081.750732421875 3085.076171875 3087.257080078125 3089.227294921875 3070.16943359375 3069.590087890625 3082.87109375 3094.504638671875 3096.431640625 3094.500244140625 3103.369140625 3117.58740234375 3130.7177734375 3146.60546875 3158.483642578125 3167.944580078125 3179.95849609375 3191.04248046875 3187.12451171875 3181.676025390625 3192.548095703125 3161.237548828125 3129.74267578125 3125.876708984375 3167.56884765625 3195.07421875 3199.46337890625 3215.4541015625 3232.099609375 3248.845947265625 3260.866455078125 3264.83349609375 3261.10498046875 3260.73046875 3249.4619140625 3229.241943359375 3208.7060546875 3187.128173828125 3208.7919921875 3215.00537109375 3200.3134765625 3221.0419921875 3247.084228515625 3275.1318359375 3299.785400390625 3320.67138671875 3343.662841796875 3363.406005859375 3378.016845703125 3388.950439453125 3398.996826171875 3407.61474609375 3415.5498046875 3422.85791015625 3424.03662109375 nan nan nan nan nan nan nan nan nan nan nan nan
nan nan nan nan nan nan nan nan nan nan nan nan nan nan nan nan nan nan nan nan nan nan nan nan nan nan nan nan nan nan nan nan nan nan nan nan nan nan nan nan nan nan nan nan nan nan nan nan nan nan nan nan nan nan nan nan nan nan nan nan nan nan nan nan nan nan nan nan nan nan nan nan nan nan nan nan nan nan nan nan nan nan nan nan nan nan nan nan nan nan nan nan nan nan nan nan nan nan nan nan nan nan nan nan nan nan nan 3353.433837890625 3337.4453125 3311.728515625 3290.963134765625 3270.707275390625 3256.376953125 3241.822265625 3215.017822265625 3180.336669921875 3156.365966796875 3128.359375 3109.052490234375 3098.9814453125 3090.572998046875 3082.58544921875 3069.489013671875 3063.563720703125 3053.212890625 3039.53662109375 3021.415283203125 3003.4150390625 3002.930419921875 2989.28857421875 2984.229736328125 2970.67724609375 2948.308837890625 2935.20361328125 2918.640869140625 2904.02685546875 2897.417236328125 2893.248046875 2887.962890625 2878.735107421875 2858.421142578125 2839.8193359375 2819.40771484375 2797.94873046875 2780.19140625 2773.847412109375 2770.311767578125 2769.953857421875 2769.314208984375 2768.63232421875 2767.840087890625 2767.9296875 2783.163818359375 2803.52490234375 2813.667236328125 2819.17041015625 2824.157470703125 2832.700927734375 2839.197998046875 2848.2470703125 2858.147705078125 2864.492919921875 2873.881103515625 2884.91748046875 2898.2548828125 2901.3330078125 2905.75830078125 2914.1396484375 2923.4892578125 2926.73779296875 2926.75 2911.449462890625 2893.50048828125 2890.804443359375 2887.742431640625 2892.61962890625 2893.539306640625 2897.384521484375 2902.615478515625 2904.082275390625 2908.100341796875 2917.65087890625 2931.5810546875 2944.58251953125 2954.074951171875 2957.059326171875 2958.61962890625 2960.96728515625 2968.884033203125 2981.419921875 2992.871826171875 3000.039794921875 3011.870361328125 3024.5634765625 3041.70654296875 3060.748291015625 3080.53564453125 3097.106689453125 3114.67626953125 3123.22998046875 3124.81982421875 3111.192138671875 3103.07421875 3102.08935546875 3102.14013671875 3093.75390625 3085.845703125 3066.412109375 3061.14599609375 3066.441162109375 3073.74072265625 3077.78955078125 3080.28173828125 3064.589111328125 3066.546875 3072.95556640625 3076.866455078125 3082.74755859375 3095.621826171875 3113.0244140625 3129.4912109375 3141.53173828125 3153.816650390625 3165.1904296875 3174.90283203125 3184.185791015625 3186.397705078125 3172.421142578125 3153.924072265625 3168.7568359375 3161.82861328125 3127.562255859375 3126.543212890625 3167.77587890625 3183.67138671875 3187.06298828125 3200.03173828125 3216.023193359375 3233.2373046875 3244.30517578125 3249.263916015625 3237.830322265625 3236.223388671875 3230.499755859375 3223.994140625 3211.355712890625 3183.84521484375 3194.041015625 3190.211181640625 3197.491943359375 3223.359130859375 3249.744384765625 3276.833984375 3301.697998046875 3322.45361328125 3341.614013671875 3358.060546875 3367.74951171875 3372.26318359375 3377.256591796875 3384.519775390625 3393.816650390625 3402.24951171875 3406.478515625 nan nan nan nan nan nan nan nan nan nan nan nan
nan nan nan nan nan nan nan nan nan nan nan nan nan nan nan nan nan nan nan nan nan nan nan nan nan nan nan nan nan nan nan nan nan nan nan nan nan nan nan nan nan nan nan nan nan nan nan nan nan nan nan nan nan nan nan nan nan nan nan nan nan nan nan nan nan nan nan nan nan nan nan nan nan nan nan nan nan nan nan nan nan nan nan nan nan nan nan nan nan nan nan nan nan nan nan nan nan nan nan nan nan nan nan nan nan nan nan nan 3331.12451171875 3305.0224609375 3280.955322265625 3261.998779296875 3243.568115234375 3227.0791015625 3208.421875 3181.6259765625 3162.172119140625 3142.739013671875 3122.37255859375 3106.670654296875 3094.53369140625 3082.519287109375 3065.47021484375 3054.10107421875 3053.615234375 3037.007568359375 3022.020263671875 3002.421142578125 2999.229248046875 2995.123046875 2989.626953125 2991.87744140625 2975.401611328125 2954.516845703125 2939.4033203125 2920.24267578125 2906.456298828125 2898.955078125 2890.4306640625 2879.34912109375 2870.845458984375 2854.37744140625 2829.01708984375 2813.912353515625 2793.871826171875 2775.827880859375 2769.1494140625 2769.542236328125 2769.59619140625 2768.4052734375 2768.49853515625 2768.372802734375 2767.02392578125 2788.890380859375 2800.548095703125 2805.81591796875 2817.026123046875 2830.08544921875 2836.9296875 2844.94189453125 2854.777587890625 2861.625732421875 2870.037109375 2879.3330078125 2892.271240234375 2896.2119140625 2899.869384765625 2907.8271484375 2912.509765625 2922.3818359375 2920.11962890625 2913.4326171875 2895.3232421875 2886.644287109375 2886.01123046875 2886.626220703125 2889.97216796875 2893.3681640625 2895.3466796875 2899.43798828125 2903.4833984375 2914.7744140625 2927.88330078125 2941.181396484375 2949.552734375 2951.294677734375 2953.48095703125 2955.033447265625 2958.108642578125 2969.789794921875 2982.94775390625 2990.008544921875 3000.92138671875 3014.530029296875 3033.482666015625 3053.353759765625 3070.706298828125 3087.90966796875 3109.010498046875 3122.34326171875 3124.2158203125 3110.32470703125 3098.218505859375 3093.8779296875 3096.1142578125 3094.276611328125 3087.025390625 3080.2373046875 3064.9814453125 3054.72216796875 3058.4794921875 3061.4384765625 3067.540283203125 3058.864501953125 3062.0712890625 3066.728515625 3079.728759765625 3093.39990234375 3109.739501953125 3125.625732421875 3139.126708984375 3146.734619140625 3156.577392578125 3163.53173828125 3165.52392578125 3168.060302734375 3157.10791015625 3151.34619140625 3139.169677734375 3154.075439453125 3143.716552734375 3113.724365234375 3125.552001953125 3162.863037109375 3170.73974609375 3175.489013671875 3185.24462890625 3199.2509765625 3215.590087890625 3233.1865234375 3239.599853515625 3233.140380859375 3226.3369140625 3216.36376953125 3209.296630859375 3202.173095703125 3183.6845703125 3173.5244140625 3170.483642578125 3193.793212890625 3221.129150390625 3246.78857421875 3272.874755859375 3297.244873046875 3318.65234375 3335.7119140625 3345.066650390625 3342.79345703125 3343.95654296875 3350.473388671875 3361.05078125 3370.833251953125 3380.50634765625 3386.541748046875 3386.48388671875 nan nan nan nan nan nan nan nan nan nan nan
nan nan nan nan nan nan nan nan nan nan nan nan nan nan nan nan nan nan nan nan nan nan nan nan nan nan nan nan nan nan nan nan nan nan nan nan nan nan nan nan nan nan nan nan nan nan nan nan nan nan nan nan nan nan nan nan nan nan nan nan nan nan nan nan nan nan nan nan nan nan nan nan nan nan nan nan nan nan nan nan nan nan nan nan nan nan nan nan nan nan nan nan nan nan nan nan nan nan nan nan nan nan nan nan nan nan nan nan nan 3299.162841796875 3275.911865234375 3257.6611328125 3237.98486328125 3218.605712890625 3197.304931640625 3175.721923828125 3161.864990234375 3147.941162109375 3130.45751953125 3112.90234375 3101.284912109375 3086.080078125 3065.97900390625 3050.2705078125 3045.08837890625 3040.11669921875 3023.662109375 3010.29931640625 3003.77392578125 3000.55029296875 2999.916015625 2986.69140625 2988.125 2974.06982421875 2963.092041015625 2945.21728515625 2923.88330078125 2908.353759765625 2898.5595703125 2885.27978515625 2873.80224609375 2866.59765625 2853.310302734375 2829.89453125 2811.144775390625 2789.251708984375 2769.49853515625 2769.604248046875 2769.1767578125 2768.7119140625 2768.67138671875 2767.984130859375 2767.04345703125 2774.871337890625 2778.7373046875 2804.677734375 2811.872314453125 2820.80322265625 2834.044189453125 2842.247314453125 2851.134521484375 2859.994873046875 2866.95703125 2873.666748046875 2885.29052734375 2893.43994140625 2892.359130859375 2902.248779296875 2906.91455078125 2915.035888671875 2915.731689453125 2906.386962890625 2894.810791015625 2888.659912109375 2886.512451171875 2880.0791015625 2884.2060546875 2887.022705078125 2887.490478515625 2894.3408203125 2899.151611328125 2910.166015625 2921.908203125 2934.42138671875 2942.681884765625 2942.689208984375 2946.719970703125 2949.910400390625 2951.827392578125 2957.885986328125 2972.065673828125 2984.754638671875 2990.8583984375 3006.71044921875 3025.841796875 3043.442138671875 3059.461181640625 3075.6875 3097.189208984375 3119.849853515625 3125.781494140625 3113.067138671875 3098.66015625 3090.060302734375 3089.97216796875 3089.993408203125 3085.102783203125 3080.564208984375 3072.586181640625 3061.60302734375 3051.946044921875 3049.333740234375 3050.967041015625 3053.92333984375 3056.31884765625 3076.4150390625 3092.09228515625 3107.26025390625 3121.1435546875 3131.21142578125 3137.8662109375 3139.349609375 3139.73583984375 3136.525146484375 3139.303466796875 3140.84423828125 3129.33935546875 3119.292724609375 3127.064697265625 3143.303955078125 3137.85009765625 3104.121826171875 3116.015625 3146.945068359375 3156.751953125 3162.005615234375 3171.697021484375 3184.66552734375 3207.553955078125 3225.678466796875 3236.3154296875 3233.288818359375 3228.306884765625 3215.808349609375 3204.393798828125 3191.60009765625 3186.476318359375 3155.26123046875 3160.32861328125 3189.15087890625 3217.026123046875 3242.677978515625 3267.31005859375 3291.1953125 3310.1025390625 3326.70458984375 3319.931884765625 3313.123291015625 3318.533935546875 3329.10009765625 3337.802734375 3348.0126953125 3357.642822265625 3364.55615234375 3366.67919921875 3360.3994140625 nan nan nan nan nan nan nan nan nan nan
nan nan nan nan nan nan nan nan nan nan nan nan nan nan nan nan nan nan nan nan nan nan nan nan nan nan nan nan nan nan nan nan nan nan nan nan nan nan nan nan nan nan nan nan nan nan nan nan nan nan nan nan nan nan nan nan nan nan nan nan nan nan nan nan nan nan nan nan nan nan nan nan nan nan nan nan nan nan nan nan nan nan nan nan nan nan nan nan nan nan nan nan nan nan nan nan nan nan nan nan nan nan nan nan nan nan nan nan nan nan nan nan 3228.92724609375 3210.96484375 3193.1474609375 3173.94384765625 3162.775634765625 3149.90185546875 3136.888916015625 3123.139892578125 3104.99658203125 3091.48388671875 3070.94775390625 3049.370849609375 3041.852783203125 3047.153564453125 3037.01318359375 3021.653076171875 3009.6142578125 3001.026611328125 2996.422607421875 2995.141845703125 2980.500244140625 2986.3515625 2978.056396484375 2968.29248046875 2945.38671875 2923.30859375 2906.249267578125 2897.624755859375 2879.8359375 2875.66162109375 2870.376220703125 2848.968505859375 2824.281005859375 2799.601806640625 2776.45654296875 2768.831298828125 2768.755615234375 2768.1435546875 2768.153076171875 2767.326171875 2766.924072265625 2766.515869140625 2782.23876953125 2799.5830078125 2806.30029296875 2813.35986328125 2825.130615234375 2839.42138671875 2847.3017578125 2856.5888671875 2864.314208984375 2868.75341796875 2876.815185546875 2888.34228515625 2886.83056640625 2894.408935546875 2903.188720703125 2905.17333984375 2909.089111328125 2900.185546875 2890.970947265625 2886.2861328125 2885.412109375 2883.910400390625 2876.158447265625 2881.716064453125 2883.67529296875 2886.666259765625 2894.79443359375 2906.8212890625 2916.773681640625 2925.91357421875 2929.882568359375 2931.506103515625 2940.815185546875 2944.217041015625 2946.911865234375 2948.420654296875 2959.044677734375 2973.019775390625 2986.368896484375 2998.87451171875 3015.78076171875 3032.2490234375 3046.642578125 3059.811767578125 3079.506591796875 3102.35595703125 3121.32275390625 3115.119384765625 3099.0087890625 3088.40869140625 3082.38427734375 3081.564453125 3080.78466796875 3075.97607421875 3070.935546875 3062.95458984375 3054.5234375 3046.94140625 3048.7001953125 3049.972412109375 3054.25341796875 3076.43603515625 3096.2724609375 3114.720458984375 3122.6376953125 3117.2421875 3113.143798828125 3107.870849609375 3115.3037109375 3113.644287109375 3116.245849609375 3118.029541015625 3108.64892578125 3096.065185546875 3106.716796875 3125.582763671875 3125.47509765625 3093.883544921875 3110.291015625 3133.47900390625 3144.4736328125 3144.331787109375 3167.61767578125 3189.0361328125 3210.212890625 3229.334228515625 3243.03662109375 3242.363525390625 3234.914306640625 3214.59228515625 3196.57861328125 3182.798095703125 3176.418212890625 3154.836669921875 3159.07958984375 3185.89990234375 3214.56787109375 3239.5419921875 3263.90673828125 3285.370361328125 3300.19287109375 3307.631103515625 3292.316162109375 3285.549072265625 3293.037841796875 3305.58935546875 3313.439697265625 3322.98876953125 3332.346435546875 3341.19287109375 3346.3525390625 3345.7236328125 3338.786376953125 nan nan nan nan nan nan nan nan nan
nan nan nan nan nan nan nan nan nan nan nan nan nan nan nan nan nan nan nan nan nan nan nan nan nan nan nan nan nan nan nan nan nan nan nan nan nan nan nan nan nan nan nan nan nan nan nan nan nan nan nan nan nan nan nan nan nan nan nan nan nan nan nan nan nan nan nan nan nan nan nan nan nan nan nan nan nan nan nan nan nan nan nan nan nan nan nan nan nan nan nan nan nan nan nan nan nan nan nan nan nan nan nan nan nan nan nan nan nan nan nan nan nan 3200.816650390625 3185.30908203125 3171.951171875 3158.918212890625 3145.198974609375 3140.500732421875 3131.498291015625 3109.35693359375 3092.88720703125 3077.4111328125 3056.604248046875 3040.42919921875 3037.721435546875 3036.32861328125 3028.60791015625 3010.597900390625 2998.7978515625 2991.296875 2984.72607421875 2978.207763671875 2971.92626953125 2981.493896484375 2969.225830078125 2957.70556640625 2944.205810546875 2915.0390625 2901.26513671875 2890.638916015625 2881.693359375 2877.740234375 2870.174560546875 2838.433349609375 2813.04345703125 2792.47216796875 2770.564208984375 2768.317138671875 2767.776611328125 2767.590087890625 2767.6298828125 2767.028076171875 2766.706787109375 2765.09716796875 2786.486083984375 2797.2158203125 2808.341064453125 2811.7626953125 2835.319091796875 2844.672119140625 2851.5986328125 2859.8271484375 2862.43359375 2868.3388671875 2879.7177734375 2882.30810546875 2887.6171875 2895.0263671875 2895.713623046875 2898.692626953125 2892.49072265625 2891.3095703125 2892.80859375 2886.7109375 2886.6298828125 2875.109619140625 2874.970947265625 2880.098876953125 2879.135986328125 2886.746337890625 2900.43310546875 2909.419921875 2916.94140625 2916.811279296875 2920.889892578125 2928.3642578125 2933.89208984375 2940.619384765625 2942.314697265625 2945.867919921875 2959.699462890625 2976.501220703125 2989.241455078125 3003.927490234375 3021.379638671875 3032.24755859375 3045.764404296875 3062.7373046875 3080.828369140625 3099.960205078125 3115.26611328125 3099.67529296875 3088.46875 3081.202880859375 3077.336181640625 3074.599853515625 3071.791748046875 3065.165283203125 3058.197509765625 3050.30029296875 3044.504150390625 3046.176513671875 3046.533203125 3051.84912109375 3068.16650390625 3083.095458984375 3095.748291015625 3093.633544921875 3089.59716796875 3087.777099609375 3086.28515625 3095.218017578125 3091.140869140625 3087.048583984375 3089.32080078125 3086.546875 3079.50634765625 3097.61962890625 3104.39599609375 3108.1513671875 3086.1630859375 3106.01611328125 3116.184326171875 3125.92041015625 3144.912841796875 3170.493896484375 3196.412353515625 3221.47998046875 3243.640869140625 3258.2861328125 3249.760986328125 3233.113525390625 3212.19580078125 3185.71533203125 3170.133056640625 3164.613037109375 3142.938720703125 3154.880615234375 3181.26416015625 3209.248779296875 3234.162353515625 3257.573486328125 3275.763916015625 3287.99609375 3288.3681640625 3267.427490234375 3260.45751953125 3269.18017578125 3278.54638671875 3287.453857421875 3298.411376953125 3311.523681640625 3321.833984375 3327.5732421875 3327.998779296875 3321.61328125 3316.15283203125 nan nan nan nan nan nan nan nan
nan nan nan nan nan nan nan nan nan nan nan nan nan nan nan nan nan nan nan nan nan nan nan nan nan nan nan nan nan nan nan nan nan nan nan nan nan nan nan nan nan nan nan nan nan nan nan nan nan nan nan nan nan nan nan nan nan nan nan nan nan nan nan nan nan nan nan nan nan nan nan nan nan nan nan nan nan nan nan nan nan nan nan nan nan nan nan nan nan nan nan nan nan nan nan nan nan nan nan nan nan nan nan nan nan nan nan nan nan nan nan nan nan nan 3177.625 3168.7978515625 3159.007080078125 3143.047607421875 3139.853271484375 3132.24609375 3116.39794921875 3094.79248046875 3085.7197265625 3070.910400390625 3045.747314453125 3034.547607421875 3030.35205078125 3023.78076171875 3013.486328125 3000.503173828125 2990.375244140625 2983.487060546875 2975.4384765625 2969.0751953125 2968.098388671875 2971.38232421875 2963.387939453125 2952.1416015625 2929.9462890625 2911.55615234375 2900.2119140625 2888.63916015625 2888.411376953125 2883.2490234375 2858.319091796875 2827.530029296875 2798.126220703125 2778.464599609375 2768.35107421875 2767.722900390625 2767.834228515625 2767.60205078125 2767.382080078125 2766.499267578125 2765.934326171875 2774.9326171875 2792.38330078125 2804.90185546875 2806.787353515625 2824.698974609375 2841.52197265625 2848.253662109375 2853.862548828125 2855.36328125 2860.521240234375 2871.118408203125 2876.3359375 2879.318359375 2889.0205078125 2885.376220703125 2892.7041015625 2889.411376953125 2886.794189453125 2892.376708984375 2896.95068359375 2880.73095703125 2875.999755859375 2868.011474609375 2872.72705078125 2875.99267578125 2877.53857421875 2889.224365234375 2899.762939453125 2907.451416015625 2908.44140625 2913.12548828125 2915.657470703125 2927.889892578125 2929.869873046875 2935.7666015625 2939.175048828125 2948.64208984375 2962.261962890625 2979.927490234375 2995.864501953125 3011.089111328125 3024.884521484375 3033.487548828125 3050.317138671875 3063.406982421875 3077.784423828125 3094.015869140625 3102.994873046875 3092.12109375 3081.059814453125 3077.7822265625 3075.052001953125 3071.966552734375 3066.2958984375 3058.04345703125 3047.926025390625 3043.07080078125 3043.4716796875 3043.696533203125 3045.17431640625 3055.68212890625 3065.379150390625 3072.069580078125 3067.37060546875 3064.912109375 3062.285400390625 3069.194091796875 3080.992431640625 3071.598876953125 3065.068603515625 3071.896240234375 3070.294189453125 3069.73583984375 3078.31201171875 3085.85400390625 3088.06201171875 3082.45068359375 3093.7236328125 3104.59765625 3122.35205078125 3147.30322265625 3173.406494140625 3203.09375 3233.40380859375 3257.40576171875 3260.68798828125 3246.927001953125 3231.305908203125 3205.193115234375 3178.500244140625 3164.0244140625 3151.39306640625 3130.17919921875 3148.5419921875 3174.48486328125 3201.72998046875 3224.26953125 3243.322021484375 3258.705810546875 3268.18994140625 3260.686279296875 3244.52490234375 3234.84033203125 3244.236083984375 3252.817626953125 3264.25048828125 3278.37255859375 3291.22900390625 3301.021484375 3309.161865234375 3309.2802734375 3301.705322265625 3298.075927734375 3298.798828125 nan nan nan nan nan nan nan
nan nan nan nan nan nan nan nan nan nan nan nan nan nan nan nan nan nan nan nan nan nan nan nan nan nan nan nan nan nan nan nan nan nan nan nan nan nan nan nan nan nan nan nan nan nan nan nan nan nan nan nan nan nan nan nan nan nan nan nan nan nan nan nan nan nan nan nan nan nan nan nan nan nan nan nan nan nan nan nan nan nan nan nan nan nan nan nan nan nan nan nan nan nan nan nan nan nan nan nan nan nan nan nan nan nan nan nan nan nan nan nan nan nan nan 3165.444091796875 3155.1083984375 3142.50048828125 3138.91015625 3131.814208984375 3126.506591796875 3106.144287109375 3094.155517578125 3078.37890625 3060.128173828125 3037.416748046875 3030.0576171875 3020.920654296875 3013.25439453125 3003.7548828125 2989.18896484375 2980.988525390625 2976.871337890625 2971.264892578125 2967.890380859375 2966.731689453125 2971.958740234375 2957.444580078125 2936.687744140625 2929.126708984375 2913.310546875 2899.445556640625 2891.6103515625 2887.116943359375 2875.67041015625 2848.9853515625 2813.256591796875 2790.877685546875 2768.457763671875 2767.806884765625 2767.44921875 2767.4599609375 2767.4443359375 2765.209716796875 2765.3212890625 2770.315673828125 2789.0576171875 2799.673828125 2808.490966796875 2816.61083984375 2837.186279296875 2842.559326171875 2846.05419921875 2846.72119140625 2849.94873046875 2859.099365234375 2867.97705078125 2870.113037109375 2881.580322265625 2878.6015625 2877.927734375 2889.427001953125 2884.671630859375 2885.513916015625 2890.787109375 2882.671630859375 2874.1171875 2875.296630859375 2866.35107421875 2865.454833984375 2869.3759765625 2877.248046875 2887.233154296875 2897.950439453125 2903.48486328125 2902.509033203125 2907.3935546875 2914.753662109375 2910.936279296875 2922.90966796875 2928.78857421875 2935.42529296875 2946.76708984375 2965.327392578125 2984.0400390625 3000.5615234375 3013.81640625 3026.1259765625 3035.9462890625 3048.10791015625 3059.54052734375 3073.914306640625 3088.01708984375 3096.601806640625 3091.619384765625 3080.3251953125 3077.035400390625 3074.212158203125 3069.793701171875 3061.616455078125 3051.292724609375 3041.532958984375 3041.467041015625 3041.124755859375 3040.414306640625 3040.075927734375 3045.078125 3047.6171875 3045.975341796875 3046.724609375 3047.29443359375 3048.704833984375 3057.89013671875 3053.880615234375 3051.79443359375 3055.993896484375 3059.189208984375 3060.70263671875 3063.143798828125 3068.599853515625 3073.410888671875 3078.28662109375 3088.385009765625 3106.2861328125 3124.808837890625 3151.8330078125 3181.25048828125 3214.283935546875 3237.30078125 3259.279541015625 3246.058349609375 3233.271728515625 3215.382568359375 3191.9521484375 3168.03173828125 3152.4345703125 3144.62353515625 3123.897705078125 3142.915283203125 3167.69482421875 3191.828369140625 3208.790771484375 3223.3974609375 3235.724365234375 3244.407958984375 3244.949951171875 3219.353271484375 3210.338623046875 3217.968017578125 3227.263916015625 3240.76708984375 3254.252685546875 3264.93896484375 3279.004638671875 3291.645751953125 3290.5439453125 3281.772705078125 3281.85888671875 3287.38916015625 nan nan nan nan nan nan nan
nan nan nan nan nan nan nan nan nan nan nan nan nan nan nan nan nan nan nan nan nan nan nan nan nan nan nan nan nan nan nan nan nan nan nan nan nan nan nan nan nan nan nan nan nan nan nan nan nan nan nan nan nan nan nan nan nan nan nan nan nan nan nan nan nan nan nan nan nan nan nan nan nan nan nan nan nan nan nan nan nan nan nan nan nan nan nan nan nan nan nan nan nan nan nan nan nan nan nan nan nan nan nan nan nan nan nan nan nan nan nan nan nan nan nan nan 3152.789794921875 3146.71484375 3139.588623046875 3138.377197265625 3129.39111328125 3120.174072265625 3106.45166015625 3092.574951171875 3068.07177734375 3047.296630859375 3032.398193359375 3026.505126953125 3016.087890625 3004.23193359375 2990.6279296875 2983.87841796875 2979.104248046875 2976.175048828125 2972.675048828125 2967.37060546875 2966.963134765625 2961.44189453125 2944.11083984375 2942.888916015625 2931.9345703125 2917.888427734375 2902.96484375 2892.4150390625 2885.191650390625 2870.380859375 2838.38330078125 2799.396728515625 2771.049560546875 2767.543701171875 2767.18115234375 2766.644287109375 2766.62890625 2764.689697265625 2764.8544921875 2764.166259765625 2783.3583984375 2796.511474609375 2806.091796875 2819.2431640625 2828.334228515625 2835.9716796875 2838.9365234375 2838.829833984375 2838.7763671875 2844.86328125 2854.576904296875 2861.366455078125 2872.053466796875 2874.59130859375 2870.1943359375 2876.8291015625 2885.926025390625 2884.53857421875 2881.075927734375 2885.2490234375 2879.99267578125 2869.144775390625 2872.97119140625 2863.9150390625 2854.159423828125 2864.29931640625 2876.14404296875 2886.73388671875 2897.475830078125 2897.3896484375 2899.599365234375 2901.8193359375 2898.989013671875 2905.396484375 2910.678955078125 2917.78564453125 2929.79736328125 2948.251708984375 2969.10400390625 2990.552490234375 3004.19189453125 3016.411376953125 3025.519287109375 3034.552490234375 3043.714111328125 3054.21533203125 3068.879150390625 3081.8564453125 3088.3828125 3093.43994140625 3084.5498046875 3077.128173828125 3073.215087890625 3069.8388671875 3062.12451171875 3045.555908203125 3039.37158203125 3039.294677734375 3038.482666015625 3037.69970703125 3036.11279296875 3035.345703125 3036.680419921875 3036.100830078125 3037.8271484375 3037.82470703125 3041.595703125 3045.3828125 3047.72021484375 3051.168701171875 3053.426513671875 3056.99658203125 3061.0576171875 3064.78125 3067.69580078125 3074.892333984375 3091.329833984375 3110.114501953125 3131.684814453125 3157.733642578125 3191.29638671875 3215.40869140625 3241.978515625 3260.95263671875 3243.084716796875 3222.032958984375 3196.623046875 3176.164794921875 3156.2001953125 3143.382080078125 3136.081787109375 3117.23095703125 3137.2607421875 3159.91552734375 3176.777099609375 3188.7158203125 3200.1318359375 3210.38134765625 3216.22998046875 3217.9697265625 3200.851318359375 3187.429931640625 3192.97998046875 3204.225341796875 3216.560791015625 3228.17529296875 3246.19189453125 3265.80078125 3279.52685546875 3271.805908203125 3258.510498046875 3261.57470703125 3270.236572265625 3279.8095703125 nan nan nan nan nan nan
nan nan nan nan nan nan nan nan nan nan nan nan nan nan nan nan nan nan nan nan nan nan nan nan nan nan nan nan nan nan nan nan nan nan nan nan nan nan nan nan nan nan nan nan nan nan nan nan nan nan nan nan nan nan nan nan nan nan nan nan nan nan nan nan nan nan nan nan nan nan nan nan nan nan nan nan nan nan nan nan nan nan nan nan nan nan nan nan nan nan nan nan nan nan nan nan nan nan nan nan nan nan nan nan nan nan nan nan nan nan nan nan nan nan nan nan nan nan 3143.2138671875 3135.071533203125 3131.11572265625 3121.9375 3111.94384765625 3095.92041015625 3073.831298828125 3054.174072265625 3037.75 3029.53759765625 3020.31884765625 3007.315673828125 2993.275634765625 2986.06396484375 2983.791748046875 2977.9619140625 2975.056396484375 2971.951904296875 2966.656005859375 2967.517333984375 2964.032958984375 2960.33544921875 2945.89404296875 2931.91748046875 2916.49560546875 2901.638427734375 2891.2158203125 2880.083984375 2848.04345703125 2814.379638671875 2782.1220703125 2767.390869140625 2766.935791015625 2766.429443359375 2766.120849609375 2765.783203125 2764.61962890625 2764.26708984375 2765.500244140625 2784.415771484375 2806.834716796875 2819.58544921875 2823.1943359375 2827.703125 2830.1552734375 2832.267578125 2829.76318359375 2835.60546875 2843.60888671875 2853.175537109375 2861.81298828125 2867.383056640625 2865.87451171875 2867.213623046875 2878.8642578125 2883.45849609375 2877.440185546875 2879.627197265625 2878.917724609375 2878.384765625 2866.473388671875 2872.763671875 2859.854248046875 2849.130615234375 2855.16162109375 2865.42333984375 2883.8212890625 2889.826171875 2893.489013671875 2890.798828125 2888.716064453125 2893.48095703125 2896.37744140625 2904.39794921875 2919.3857421875 2935.607666015625 2955.8916015625 2977.290771484375 2995.816162109375 3007.29541015625 3017.26171875 3025.682861328125 3032.13671875 3037.536865234375 3051.1865234375 3065.405029296875 3078.897216796875 3084.33935546875 3085.546875 3082.006103515625 3080.223388671875 3077.026123046875 3071.071533203125 3054.62158203125 3044.379150390625 3038.076904296875 3037.040283203125 3036.354248046875 3035.396728515625 3034.02685546875 3033.9775390625 3032.93896484375 3032.974365234375 3035.44775390625 3038.39013671875 3040.67578125 3044.35302734375 3047.8271484375 3050.446533203125 3052.213623046875 3055.7568359375 3060.854736328125 3072.259765625 3082.587158203125 3097.74609375 3116.103515625 3140.884765625 3164.833740234375 3197.7900390625 3226.779296875 3250.17138671875 3255.807373046875 3242.539794921875 3216.0341796875 3192.16845703125 3170.771240234375 3151.327880859375 3136.85546875 3126.42919921875 3111.037841796875 3132.31787109375 3149.27978515625 3160.4736328125 3168.3720703125 3176.0478515625 3184.56640625 3193.454833984375 3190.97509765625 3181.29150390625 3165.3544921875 3173.04443359375 3184.126953125 3193.503662109375 3217.172607421875 3239.703369140625 3255.51025390625 3264.4072265625 3252.5322265625 3236.820556640625 3239.9306640625 3252.3310546875 3264.9296875 3271.347412109375 nan nan nan nan nan
nan nan nan nan nan nan nan nan nan nan nan nan nan nan nan nan nan nan nan nan nan nan nan nan nan nan nan nan nan nan nan nan nan nan nan nan nan nan nan nan nan nan nan nan nan nan nan nan nan nan nan nan nan nan nan nan nan nan nan nan nan nan nan nan nan nan nan nan nan nan nan nan nan nan nan nan nan nan nan nan nan nan nan nan nan nan nan nan nan nan nan nan nan nan nan nan nan nan nan nan nan nan nan nan nan nan nan nan nan nan nan nan nan nan nan nan nan nan nan nan 3132.259033203125 3124.41943359375 3118.052734375 3103.127685546875 3084.878662109375 3061.92919921875 3044.39892578125 3033.391357421875 3025.56982421875 3011.27734375 2994.2138671875 2987.049560546875 2982.970458984375 2980.898193359375 2973.088623046875 2972.04296875 2968.46484375 2960.233154296875 2960.664794921875 2959.982666015625 2955.74853515625 2944.38671875 2936.6220703125 2922.629638671875 2900.947998046875 2885.876220703125 2863.958984375 2833.73583984375 2803.488037109375 2779.293701171875 2767.249755859375 2766.84326171875 2766.55419921875 2765.8173828125 2765.1953125 2764.66064453125 2763.941162109375 2771.698486328125 2792.802734375 2809.75048828125 2813.9599609375 2812.93017578125 2810.9072265625 2819.859619140625 2821.022705078125 2827.380615234375 2835.438720703125 2844.837890625 2852.578369140625 2859.13818359375 2860.3740234375 2858.259765625 2865.97998046875 2875.490966796875 2880.438720703125 2875.67333984375 2871.856201171875 2878.22119140625 2874.6484375 2865.332763671875 2863.646240234375 2862.536376953125 2844.708251953125 2842.187255859375 2857.646728515625 2876.023681640625 2883.61376953125 2883.79443359375 2882.641845703125 2882.3466796875 2886.12158203125 2895.155029296875 2910.617431640625 2926.76611328125 2945.431884765625 2963.70849609375 2980.0859375 2995.162353515625 3005.61962890625 3013.83935546875 3018.365234375 3019.479736328125 3030.654541015625 3046.019775390625 3063.433349609375 3075.989013671875 3079.450927734375 3082.95361328125 3081.42041015625 3082.754150390625 3077.071044921875 3064.42822265625 3057.94873046875 3047.886962890625 3040.005859375 3035.38720703125 3034.0712890625 3032.502197265625 3032.3984375 3031.72265625 3031.780029296875 3033.384521484375 3035.738037109375 3038.970458984375 3041.21142578125 3042.064453125 3047.603759765625 3059.912109375 3073.3349609375 3079.456298828125 3083.93310546875 3095.576904296875 3108.168701171875 3126.13818359375 3148.088134765625 3174.20166015625 3202.9013671875 3227.5810546875 3250.01513671875 3245.515380859375 3227.97509765625 3205.49658203125 3186.1123046875 3163.789306640625 3142.446533203125 3127.82177734375 3114.302001953125 3105.97900390625 3122.88623046875 3137.996337890625 3142.486328125 3146.423095703125 3151.0927734375 3159.411865234375 3168.3095703125 3165.80419921875 3159.655517578125 3142.54931640625 3148.46435546875 3161.284423828125 3184.897705078125 3208.372314453125 3227.55810546875 3237.797119140625 3242.491943359375 3227.34912109375 3214.516845703125 3219.1689453125 3231.53955078125 3246.813232421875 3258.081787109375 nan nan nan nan nan
nan nan nan nan nan nan nan nan nan nan nan nan nan nan nan nan nan nan nan nan nan nan nan nan nan nan nan nan nan nan nan nan nan nan nan nan nan nan nan nan nan nan nan nan nan nan nan nan nan nan nan nan nan nan nan nan nan nan nan nan nan nan nan nan nan nan nan nan nan nan nan nan nan nan nan nan nan nan nan nan nan nan nan nan nan nan nan nan nan nan nan nan nan nan nan nan nan nan nan nan nan nan nan nan nan nan nan nan nan nan nan nan nan nan nan nan nan nan nan nan nan 3130.795166015625 3126.453125 3107.799072265625 3083.5537109375 3068.1064453125 3049.613037109375 3035.928466796875 3027.234130859375 3018.08251953125 3000.904541015625 2988.97265625 2984.022216796875 2979.043701171875 2968.5673828125 2964.379150390625 2962.29833984375 2957.146728515625 2958.465087890625 2957.918701171875 2952.91943359375 2950.654052734375 2940.572265625 2936.33984375 2918.806640625 2895.920166015625 2876.326904296875 2845.65576171875 2810.828857421875 2790.515869140625 2771.31591796875 2768.343994140625 2766.79296875 2766.103271484375 2765.064208984375 2764.53955078125 2763.71630859375 2763.799072265625 2776.272216796875 2789.861083984375 2797.038330078125 2793.16845703125 2789.949951171875 2798.107666015625 2804.3232421875 2821.122802734375 2830.259521484375 2839.650390625 2846.649169921875 2851.939453125 2852.643798828125 2853.37158203125 2854.8486328125 2865.641845703125 2875.464599609375 2878.120361328125 2867.29345703125 2874.136962890625 2878.146484375 2872.361572265625 2873.5576171875 2860.422607421875 2854.950439453125 2838.359375 2846.547607421875 2865.208251953125 2870.270751953125 2874.916259765625 2874.048828125 2874.905517578125 2879.326171875 2887.937255859375 2903.945068359375 2918.864501953125 2934.44775390625 2951.09765625 2964.263671875 2981.10302734375 2997.715576171875 3008.028076171875 3010.571044921875 3006.176513671875 3013.97265625 3024.66455078125 3041.99072265625 3059.031005859375 3069.35400390625 3075.590087890625 3078.8359375 3081.296142578125 3083.074462890625 3077.58056640625 3071.34033203125 3065.935302734375 3058.92919921875 3054.27685546875 3046.54833984375 3034.895751953125 3031.13427734375 3029.82470703125 3030.638671875 3032.0830078125 3034.18359375 3036.818359375 3037.265380859375 3042.407470703125 3061.51171875 3080.65771484375 3095.08837890625 3101.8232421875 3102.48828125 3111.016357421875 3121.563232421875 3137.470703125 3155.55908203125 3178.628173828125 3202.810546875 3226.845703125 3244.927490234375 3231.564697265625 3205.333740234375 3186.27001953125 3171.9638671875 3151.675537109375 3132.340576171875 3120.21337890625 3109.57080078125 3100.362548828125 3117.276123046875 3130.46923828125 3126.478515625 3126.149658203125 3129.785888671875 3137.712158203125 3143.03125 3143.6982421875 3138.024169921875 3126.200439453125 3129.792236328125 3153.302490234375 3173.423828125 3191.210693359375 3201.46630859375 3210.942626953125 3220.329833984375 3212.483642578125 3193.4345703125 3197.73876953125 3213.084716796875 3230.461669921875 3244.67578125 3247.7744140625 nan nan nan nan
nan nan nan nan nan nan nan nan nan nan nan nan nan nan nan nan nan nan nan nan nan nan nan nan nan nan nan nan nan nan nan nan nan nan nan nan nan nan nan nan nan nan nan nan nan nan nan nan nan nan nan nan nan nan nan nan nan nan nan nan nan nan nan nan nan nan nan nan nan nan nan nan nan nan nan nan nan nan nan nan nan nan nan nan nan nan nan nan nan nan nan nan nan nan nan nan nan nan nan nan nan nan nan nan nan nan nan nan nan nan nan nan nan nan nan nan nan nan nan nan nan nan 3128.71240234375 3114.07763671875 3090.849853515625 3074.4794921875 3056.36962890625 3035.758056640625 3027.114013671875 3022.86474609375 3010.974853515625 2994.43701171875 2985.3046875 2978.353515625 2971.392578125 2964.567626953125 2960.788818359375 2957.809326171875 2955.051025390625 2954.064697265625 2953.6943359375 2951.447021484375 2946.684326171875 2937.776123046875 2926.75732421875 2907.62255859375 2884.302001953125 2852.162841796875 2818.639404296875 2794.200439453125 2776.09521484375 2770.837158203125 2768.461181640625 2766.299072265625 2765.03955078125 2764.535400390625 2762.92431640625 2762.697509765625 2763.07958984375 2773.34814453125 2781.5712890625 2782.997314453125 2779.60791015625 2786.3779296875 2798.7333984375 2811.222900390625 2824.532470703125 2836.326171875 2841.8564453125 2845.623779296875 2847.22705078125 2846.95556640625 2848.705078125 2856.45166015625 2866.444580078125 2873.88818359375 2868.066162109375 2865.6669921875 2872.12744140625 2871.75732421875 2867.903564453125 2868.546142578125 2847.44970703125 2836.982421875 2836.40185546875 2849.348388671875 2858.54931640625 2862.8291015625 2864.469482421875 2868.566162109375 2873.614501953125 2881.700927734375 2896.424560546875 2911.447021484375 2924.155517578125 2940.715087890625 2953.7763671875 2967.86376953125 2985.29345703125 3001.50439453125 3002.25 2997.314697265625 3000.8095703125 3010.70654296875 3023.108154296875 3038.584228515625 3053.50830078125 3067.82666015625 3075.26171875 3076.26513671875 3076.030517578125 3077.586181640625 3078.424072265625 3074.34375 3069.10546875 3065.35107421875 3058.528564453125 3042.4912109375 3033.065673828125 3029.22998046875 3029.19189453125 3031.462646484375 3032.9580078125 3033.5703125 3037.05419921875 3046.814208984375 3073.682861328125 3098.651611328125 3112.8115234375 3121.871337890625 3122.563720703125 3125.6435546875 3137.8583984375 3150.532470703125 3165.94580078125 3184.533203125 3206.207763671875 3227.439208984375 3234.484130859375 3218.750244140625 3198.213623046875 3172.4140625 3153.94677734375 3140.8759765625 3126.3896484375 3111.744873046875 3101.843505859375 3092.382080078125 3110.523681640625 3123.0283203125 3116.207275390625 3112.71044921875 3113.656005859375 3117.289306640625 3116.419677734375 3119.17578125 3118.700439453125 3109.408447265625 3121.717529296875 3142.4609375 3157.186767578125 3164.1806640625 3174.0693359375 3190.110107421875 3205.6962890625 3198.171875 3180.894287109375 3179.471923828125 3200.423828125 3218.332275390625 3235.81787109375 3246.653564453125 nan nan nan nan
nan nan nan nan nan nan nan nan nan nan nan nan nan nan nan nan nan nan nan nan nan nan nan nan nan nan nan nan nan nan nan nan nan nan nan nan nan nan nan nan nan nan nan nan nan nan nan nan nan nan nan nan nan nan nan nan nan nan nan nan nan nan nan nan nan nan nan nan nan nan nan nan nan nan nan nan nan nan nan nan nan nan nan nan nan nan nan nan nan nan nan nan nan nan nan nan nan nan nan nan nan nan nan nan nan nan nan nan nan nan nan nan nan nan nan nan nan nan nan nan nan nan nan 3122.396484375 3101.337646484375 3080.99951171875 3064.10107421875 3040.476318359375 3028.4296875 3023.430908203125 3016.52734375 3003.041015625 2992.420654296875 2978.243896484375 2976.659912109375 2973.9931640625 2963.984619140625 2960.158203125 2956.27294921875 2954.812744140625 2952.5224609375 2946.05859375 2948.548828125 2941.17626953125 2927.94482421875 2919.384765625 2888.05029296875 2855.2587890625 2826.686767578125 2801.949462890625 2779.732177734375 2773.486083984375 2773.13232421875 2767.141357421875 2765.014404296875 2764.4716796875 2763.375732421875 2763.24853515625 2762.920654296875 2762.919921875 2774.58642578125 2778.688232421875 2776.517578125 2776.703369140625 2785.161865234375 2797.912841796875 2811.89453125 2824.9951171875 2835.69775390625 2839.10400390625 2840.67578125 2839.6455078125 2840.824951171875 2848.03515625 2855.90234375 2864.560546875 2864.14697265625 2863.27099609375 2864.51025390625 2868.542724609375 2868.232177734375 2867.20361328125 2860.828125 2845.8115234375 2831.00048828125 2835.16015625 2848.679443359375 2852.046142578125 2856.412109375 2859.43994140625 2871.97900390625 2879.09130859375 2891.15625 2904.50634765625 2916.617919921875 2928.381591796875 2943.430908203125 2955.41015625 2970.7587890625 2988.59765625 2999.12109375 2988.8759765625 2990.399169921875 2998.250732421875 3009.1416015625 3019.146240234375 3034.2646484375 3053.336181640625 3066.358154296875 3069.176025390625 3073.19580078125 3075.19140625 3072.53662109375 3071.878662109375 3071.39208984375 3075.314697265625 3068.547119140625 3055.86083984375 3041.43310546875 3031.4716796875 3026.757568359375 3026.694580078125 3030.530029296875 3032.1201171875 3035.163330078125 3050.911376953125 3075.12109375 3098.802978515625 3116.326416015625 3128.216064453125 3136.345947265625 3142.35498046875 3151.118896484375 3163.836669921875 3178.114990234375 3193.45556640625 3209.089599609375 3224.990478515625 3229.257568359375 3211.871826171875 3195.126953125 3171.119873046875 3148.450927734375 3130.6533203125 3117.39794921875 3107.126220703125 3094.926025390625 3088.363037109375 3101.5908203125 3113.49267578125 3118.16943359375 3104.748046875 3099.69384765625 3095.061279296875 3092.877685546875 3095.3603515625 3101.888671875 3093.70751953125 3104.868896484375 3123.15478515625 3133.458251953125 3139.33349609375 3159.83984375 3179.038330078125 3190.02685546875 3180.158935546875 3159.9091796875 3162.265869140625 3181.921630859375 3201.4501953125 3221.75390625 3237.04736328125 nan nan nan nan
nan nan nan nan nan nan nan nan nan nan nan nan nan nan nan nan nan nan nan nan nan nan nan nan nan nan nan nan nan nan nan nan nan nan nan nan nan nan nan nan nan nan nan nan nan nan nan nan nan nan nan nan nan nan nan nan nan nan nan nan nan nan nan nan nan nan nan nan nan nan nan nan nan nan nan nan nan nan nan nan nan nan nan nan nan nan nan nan nan nan nan nan nan nan nan nan nan nan nan nan nan nan nan nan nan nan nan nan nan nan nan nan nan nan nan nan nan nan nan nan nan nan nan nan 3112.615234375 3089.26416015625 3069.905029296875 3049.38623046875 3030.739990234375 3023.414306640625 3020.39794921875 3013.1318359375 3003.849609375 2984.996826171875 2975.954345703125 2975.1396484375 2968.451416015625 2963.259765625 2957.724365234375 2956.48876953125 2956.382080078125 2946.18994140625 2940.3681640625 2938.44482421875 2925.988037109375 2905.552490234375 2889.2451171875 2856.499267578125 2829.16455078125 2804.333740234375 2783.478515625 2786.76171875 2777.636474609375 2776.923583984375 2764.822998046875 2764.077880859375 2763.57763671875 2762.5458984375 2762.872802734375 2762.53564453125 2765.449462890625 2776.700927734375 2772.9248046875 2773.87890625 2775.939453125 2783.807373046875 2798.63134765625 2810.678466796875 2824.1767578125 2831.519775390625 2830.94091796875 2830.227294921875 2832.45849609375 2837.873779296875 2847.032958984375 2853.06494140625 2860.697509765625 2857.925048828125 2855.085205078125 2859.326416015625 2865.55078125 2864.037109375 2863.710693359375 2856.605224609375 2837.45654296875 2826.58251953125 2837.412109375 2845.386962890625 2848.897216796875 2854.435302734375 2865.97021484375 2877.211669921875 2885.7060546875 2897.773193359375 2907.75390625 2919.954345703125 2933.777099609375 2944.32958984375 2957.67333984375 2973.24658203125 2987.852294921875 2989.773193359375 2984.917236328125 2987.77685546875 2998.058837890625 3007.15673828125 3020.677490234375 3037.93212890625 3054.865478515625 3063.5146484375 3062.82275390625 3066.18505859375 3068.25244140625 3069.932373046875 3068.75830078125 3066.97705078125 3073.506591796875 3065.18310546875 3054.7724609375 3045.616943359375 3033.160400390625 3027.19384765625 3027.209716796875 3033.155029296875 3036.107177734375 3046.341552734375 3063.095703125 3083.7392578125 3107.688720703125 3126.150390625 3140.1279296875 3152.389404296875 3163.701171875 3173.778564453125 3185.402587890625 3198.7236328125 3210.168701171875 3218.375244140625 3210.042236328125 3199.2109375 3181.7607421875 3167.132568359375 3146.587646484375 3127.154052734375 3110.665771484375 3101.92431640625 3092.72802734375 3079.735107421875 3086.797607421875 3095.19580078125 3111.579345703125 3111.503173828125 3095.82275390625 3081.4052734375 3077.571533203125 3077.008544921875 3083.54248046875 3080.650146484375 3085.03369140625 3099.858154296875 3102.754150390625 3127.44775390625 3150.34423828125 3165.012939453125 3171.768798828125 3157.51318359375 3140.109130859375 3147.728271484375 3173.206787109375 3192.34033203125 3211.021484375 3224.79443359375 nan nan nan nan
